30.97,24.94,21.77,21.20,23.76,25.78,27.18,27.73,37.27,43.99,43.86,47.49,55.35,54.03,50.65,51.05,51.62,56.87,61.90,62.33,62.77,72.97,75.88,92.33,93.77,102.00,114.78,124.82,130.67,135.68,139.01,136.82,133.29,126.01,108.55,94.46,76.42,46.84,24.64,-6.37,-35.83,-65.26,-98.53,-123.52,-143.89,-174.22,-184.23,-205.38,-217.90,-225.73,-229.19,-240.59,-240.91,-238.31,-237.25,-232.43,-236.34,-232.36,-222.38,-220.54,-211.72,-204.58,-203.66,-187.93,-184.40,-179.39,-170.24,-162.58,-155.09,-146.30,-142.86,-134.20,-128.83,-120.94,-115.48,-115.32,-106.56,-104.31,-90.45,-87.80,-88.52,-78.51,-76.88,-70.30,-70.57,-58.99,-53.23,-52.71,-38.66,-32.33,-27.80,-22.05,-14.36,-1.89,6.22,7.87,12.23,23.08,32.77,33.15,36.32,46.55,39.81,47.40,43.30,41.47,40.48,36.45,33.60,28.68,27.16,27.21,20.23,23.42,19.09,15.16,16.75,17.33,13.89,19.40,18.69,19.20,18.93,24.41,28.81,28.86,35.50,40.76,46.52,56.28,61.01,65.03,67.31,68.04,68.31,69.43,62.97,66.93,64.49,57.03,53.35,55.86,48.94,52.40,49.22,47.73,53.82,56.85,54.29,59.89,59.05,66.95,67.84,77.44,73.40,83.01,88.62,90.48,100.48,102.14,106.83,104.76,104.70,106.18,104.14,105.64,109.07,105.79,106.40,103.51,102.33,105.17,104.57,106.33,105.08,101.51,100.29,89.81,84.53,78.07,68.19,58.93,46.45,35.71,24.73,14.74,5.39,-5.98,-16.28,-25.14,-27.45,-39.77,-44.96,-54.36,-58.01,-71.65,-76.06,-83.96,-89.73,-94.49,-104.13,-112.56,-118.32,-126.46,-131.96,-147.05,-149.19,-155.90,-161.86,-169.41,-181.18,-188.38,-199.31,-202.49,-204.08,-217.16,-226.45,-231.06,-243.01,-242.00,-246.10,-254.88,-260.81,-263.58,-266.53,-266.71,-268.99,-270.82,-270.76,-271.81,-267.36,-266.86,-268.18,-259.28,-258.24,-254.59,-244.92,-244.27,-239.59,-238.92,-235.44,-227.35,-222.21,-224.05,-231.39,-226.16,-224.32,-225.06,-226.19,-231.07,-224.96,-231.12,-237.63,-240.71,-241.56,-247.68,-250.75,-253.98,-260.12,-258.04,-271.38,-270.10,-268.20,-273.37,-272.72,-269.04,-269.89,-268.71,-262.94,-262.98,-254.89,-247.78,-243.70,-233.26,-224.43,-207.29,-191.68,-182.88,-172.50,-152.51,-135.65,-126.74,-113.12,-110.30,-95.71,-87.91,-83.97,-85.12,-82.15,-88.81,-94.74,-99.77,-106.89,-108.27,-112.72,-110.57,-117.37,-118.36,-114.43,-119.20,-117.04,-116.57,-125.71,-125.72,-122.95,-132.85,-136.79,-144.26,-148.38,-151.73,-161.34,-166.32,-166.36,-172.20,-179.01,-183.54,-180.90,-187.22,-191.66,-193.91,-196.82,-200.30,-206.59,-204.12,-210.15,-211.39,-212.17,-214.59,-219.40,-224.08,-226.84,-233.29,-242.52,-244.17,-250.93,-259.39,-265.17,-273.10,-288.80,-288.44,-294.54,-301.20,-308.48,-313.80,-318.29,-326.10,-333.71,-344.68,-343.82,-354.24,-355.24,-368.10,-370.23,-378.11,-386.08,-385.63,-396.28,-395.44,-398.47,-402.77,-399.34,-402.41,-398.48,-401.28,-398.99,-403.37,-393.31,-390.28,-388.43,-384.16,-377.50,-368.86,-367.48,-360.86,-348.18,-343.31,-334.31,-325.51,-315.24,-303.43,-299.41,-285.59,-276.40,-265.05,-249.54,-247.37,-231.81,-219.52,-213.60,-200.44,-189.75,-173.48,-165.43,-157.79,-136.34,-126.03,-115.93,-106.76,-96.84,-82.44,-67.01,-57.11,-45.05,-34.04,-18.99,-6.13,11.94,28.18,37.51,50.90,68.99,81.54,95.00,101.02,116.49,121.63,128.24,126.89,131.11,125.70,126.37,118.00,108.93,109.52,99.32,96.74,84.18,78.23,76.77,73.71,65.96,66.12,62.76,64.38,68.70,61.40,60.59
33.75,26.05,24.10,22.27,17.35,19.03,18.71,15.71,16.24,23.25,27.84,24.77,29.57,32.17,26.37,32.86,31.36,31.60,30.36,38.44,41.89,42.65,56.65,63.37,74.82,88.30,100.70,113.12,117.89,127.67,127.86,135.24,131.41,127.93,116.22,101.25,83.85,57.26,39.73,12.68,-15.97,-47.57,-73.28,-105.45,-131.65,-150.30,-173.43,-184.77,-199.65,-213.20,-224.21,-228.36,-230.24,-224.36,-229.90,-226.85,-227.65,-221.30,-218.64,-212.72,-209.80,-198.22,-190.58,-189.25,-181.54,-175.16,-164.44,-157.60,-148.37,-146.64,-138.13,-132.82,-123.26,-119.24,-115.21,-110.69,-102.94,-96.48,-93.90,-91.21,-89.43,-78.28,-76.89,-70.23,-65.15,-59.10,-52.12,-55.75,-43.26,-34.08,-29.94,-22.12,-15.19,-8.05,-2.61,6.57,12.40,23.74,29.90,33.92,32.48,40.64,40.57,41.54,44.45,44.90,44.17,39.39,39.70,30.37,29.10,28.89,28.81,26.77,26.02,23.41,22.20,25.49,22.20,21.45,21.78,20.84,26.44,24.43,26.22,39.41,43.69,46.61,52.08,56.15,60.75,61.57,66.66,68.92,72.06,75.70,65.93,68.95,66.40,57.57,55.42,57.29,55.59,56.72,54.21,50.09,53.76,53.20,51.70,61.11,63.83,65.63,74.51,71.87,82.62,83.53,91.83,97.98,97.88,102.16,107.42,105.75,110.87,109.66,109.91,106.37,105.32,102.97,106.55,102.49,104.57,107.21,109.69,105.15,103.06,97.00,95.47,90.58,86.34,76.97,74.36,61.00,51.57,40.65,26.49,17.24,7.39,1.86,-7.92,-18.53,-27.25,-34.28,-47.53,-51.00,-62.42,-66.48,-70.68,-82.34,-83.64,-92.13,-100.91,-108.21,-117.88,-125.68,-132.50,-139.29,-144.66,-155.67,-162.16,-167.05,-180.35,-188.09,-193.04,-200.01,-207.71,-211.91,-224.16,-231.79,-239.77,-241.42,-245.19,-249.85,-255.52,-259.55,-261.04,-263.12,-267.55,-264.26,-264.15,-268.77,-264.51,-263.83,-258.71,-256.71,-250.94,-250.39,-242.61,-233.92,-235.35,-229.61,-230.38,-230.05,-226.46,-222.78,-223.36,-223.80,-221.24,-223.96,-228.89,-224.95,-227.91,-228.12,-232.78,-238.41,-239.51,-244.20,-247.08,-248.58,-255.76,-258.80,-267.04,-259.50,-265.76,-268.72,-265.57,-264.68,-270.78,-266.50,-261.36,-260.62,-253.81,-248.68,-237.09,-229.89,-210.12,-199.54,-193.09,-180.54,-165.17,-148.13,-132.45,-123.16,-108.94,-98.99,-93.72,-81.74,-81.20,-79.78,-75.65,-86.74,-85.03,-87.04,-91.42,-97.33,-106.56,-103.92,-108.22,-107.82,-107.20,-110.40,-115.89,-118.84,-120.28,-122.16,-122.68,-130.10,-136.07,-141.46,-146.65,-149.23,-159.03,-158.45,-164.16,-171.22,-168.05,-176.41,-183.29,-184.46,-190.39,-194.40,-196.34,-197.44,-203.75,-205.04,-202.54,-206.68,-203.25,-209.44,-213.50,-217.51,-223.93,-227.09,-235.05,-240.60,-248.91,-252.51,-264.72,-275.25,-278.49,-280.58,-289.31,-295.34,-304.78,-311.57,-320.24,-326.93,-332.28,-339.17,-346.33,-352.12,-360.60,-364.98,-368.86,-372.87,-385.01,-385.00,-390.25,-392.71,-393.55,-396.86,-405.08,-402.39,-404.43,-400.92,-394.78,-395.88,-394.42,-392.96,-387.66,-379.23,-378.67,-366.86,-362.11,-360.03,-345.93,-344.90,-337.16,-322.64,-312.60,-306.16,-297.41,-285.84,-274.19,-264.13,-255.47,-245.96,-232.82,-223.32,-208.55,-195.50,-188.45,-173.17,-159.88,-153.92,-139.43,-128.32,-119.15,-104.18,-93.03,-80.87,-67.54,-55.41,-37.73,-32.83,-16.21,-0.01,12.47,30.86,44.45,57.80,72.30,85.07,94.59,109.28,113.46,123.42,128.32,128.98,128.93,127.15,120.85,124.58,115.86,107.99,98.96,93.72,86.49,85.98,72.16,68.96,65.00,68.16,62.33,63.76,61.33,63.19,62.64
25.76,18.46,17.29,11.37,9.19,7.11,12.93,7.77,7.97,10.11,10.51,12.27,10.03,10.04,10.12,10.21,6.12,4.10,5.41,14.14,18.53,21.82,34.24,44.07,55.57,66.24,83.46,98.44,113.91,116.00,125.64,135.00,134.01,130.28,120.84,111.32,91.64,71.91,47.70,26.29,0.97,-27.75,-52.49,-85.93,-106.98,-132.86,-151.44,-172.09,-186.94,-198.19,-207.86,-210.79,-223.85,-222.08,-222.14,-216.80,-217.69,-212.84,-209.05,-201.18,-197.49,-188.93,-182.26,-173.32,-169.41,-163.73,-153.75,-148.93,-145.14,-139.90,-130.12,-128.41,-120.97,-120.79,-112.50,-103.89,-105.76,-97.09,-100.39,-87.78,-88.86,-83.55,-74.78,-74.63,-66.43,-61.77,-54.87,-49.55,-46.00,-36.14,-31.49,-24.22,-12.96,-8.64,-1.97,10.34,13.84,18.13,23.40,32.58,36.20,43.36,41.58,40.79,44.06,39.27,42.01,40.19,37.29,33.01,32.65,32.24,28.07,30.94,30.32,28.38,25.57,26.43,30.56,28.43,27.13,30.38,24.95,39.27,33.30,41.16,43.02,47.87,58.69,61.15,66.76,71.18,74.89,76.44,77.75,70.19,71.06,68.23,70.16,66.36,63.22,56.75,54.09,51.58,55.91,51.16,57.42,55.00,57.19,60.09,60.65,69.60,68.63,75.40,83.61,81.47,88.14,95.21,100.86,106.20,108.03,110.87,111.69,112.38,107.17,108.40,108.24,108.01,105.95,105.49,104.52,105.49,110.95,104.81,100.57,103.59,93.46,94.00,87.50,84.28,72.66,66.63,53.10,43.81,30.87,21.06,13.42,5.06,-11.81,-11.26,-23.93,-34.14,-40.00,-50.14,-54.25,-61.57,-70.01,-79.57,-84.18,-90.73,-96.00,-106.76,-113.47,-116.74,-123.17,-134.92,-139.67,-150.58,-161.37,-167.94,-176.03,-183.08,-190.80,-192.24,-206.74,-214.71,-216.06,-229.61,-231.08,-237.50,-243.51,-249.32,-253.88,-253.02,-254.43,-260.77,-260.77,-263.59,-260.21,-260.80,-257.06,-255.45,-255.38,-248.61,-245.40,-243.02,-235.67,-234.51,-230.05,-223.82,-221.19,-227.21,-220.95,-222.40,-220.74,-218.67,-220.19,-223.04,-221.31,-226.50,-226.48,-227.41,-229.68,-238.58,-239.33,-242.36,-244.27,-245.24,-249.64,-251.10,-251.59,-258.47,-259.89,-258.67,-265.17,-261.56,-261.87,-263.82,-254.87,-250.05,-245.57,-243.00,-227.39,-220.61,-210.14,-197.02,-184.24,-171.92,-155.27,-140.01,-127.20,-116.06,-101.98,-90.17,-84.82,-76.47,-76.66,-74.80,-79.65,-76.30,-85.51,-83.80,-86.84,-91.11,-97.53,-94.77,-95.01,-95.68,-102.50,-105.04,-109.82,-108.36,-109.20,-117.39,-119.49,-133.42,-134.49,-136.15,-146.88,-150.54,-155.66,-157.73,-163.72,-170.24,-174.68,-180.22,-181.36,-183.73,-185.96,-186.31,-191.35,-197.15,-194.78,-201.11,-199.48,-200.52,-200.92,-203.68,-209.32,-212.88,-215.44,-226.15,-226.70,-235.22,-248.31,-250.38,-256.03,-261.39,-275.28,-280.11,-287.32,-294.55,-303.60,-310.33,-318.13,-323.69,-330.02,-340.55,-344.31,-351.28,-358.94,-367.23,-374.46,-381.45,-385.87,-390.69,-389.90,-401.22,-397.24,-402.77,-399.12,-397.34,-400.38,-398.21,-397.57,-400.07,-391.76,-388.90,-384.75,-380.86,-377.11,-369.07,-360.44,-358.01,-348.82,-341.17,-331.37,-320.92,-313.02,-300.16,-294.90,-281.92,-274.17,-265.13,-248.22,-241.58,-232.01,-220.19,-205.65,-193.55,-181.62,-174.69,-162.45,-149.76,-141.24,-125.74,-114.64,-97.81,-90.65,-77.15,-60.04,-53.19,-37.81,-23.06,-12.18,5.39,17.08,32.18,42.49,61.76,73.34,86.10,102.21,111.72,116.48,122.33,125.11,135.00,124.01,130.44,122.40,122.94,116.44,105.29,98.73,92.96,85.16,83.14,75.63,73.54,67.04,68.28,58.56,59.66,61.26,56.82,55.59
29.54,17.46,12.07,8.45,3.19,0.93,-2.42,-5.59,-2.39,-8.18,-2.66,-7.63,-6.48,-5.88,-11.94,-16.49,-11.74,-15.17,-15.99,-7.37,-2.87,3.61,10.99,28.10,41.34,53.54,73.05,86.62,96.52,109.30,121.06,126.36,130.39,126.43,122.33,115.22,102.63,85.69,61.74,42.30,19.22,-10.80,-38.54,-64.56,-89.83,-109.88,-137.54,-155.79,-174.60,-179.60,-192.13,-203.61,-206.18,-207.37,-207.91,-206.05,-210.42,-200.37,-203.02,-191.43,-186.30,-176.71,-177.71,-172.45,-163.70,-157.86,-146.64,-149.72,-142.18,-137.41,-128.30,-125.43,-118.36,-113.30,-109.26,-106.76,-101.01,-98.61,-96.56,-93.01,-88.67,-80.38,-79.83,-75.20,-70.87,-68.06,-64.13,-53.26,-50.13,-40.10,-34.27,-24.35,-17.35,-9.93,-5.85,-0.97,15.06,19.33,25.41,30.79,37.41,42.60,40.68,39.35,48.27,44.43,43.67,34.78,40.59,33.58,36.52,37.92,36.09,36.35,32.67,31.32,32.45,33.09,31.74,33.22,34.17,35.95,42.45,37.12,44.54,46.85,55.98,54.34,61.21,66.00,66.40,75.35,78.37,77.95,74.49,80.92,80.95,77.03,70.81,67.10,67.42,64.70,59.99,58.20,58.81,57.49,60.82,59.94,61.94,64.07,64.99,73.13,72.38,76.62,81.30,91.53,88.02,95.64,103.49,106.47,109.26,111.86,114.81,112.81,112.27,114.19,110.23,110.23,100.83,105.39,104.19,103.75,104.36,103.72,105.80,99.82,101.16,96.58,86.60,78.92,73.93,68.71,56.98,50.65,32.19,22.17,12.28,6.91,-2.74,-12.36,-21.63,-26.97,-38.70,-43.40,-47.94,-62.43,-68.96,-79.51,-79.90,-89.34,-95.71,-97.55,-108.23,-119.24,-125.56,-134.02,-138.99,-147.33,-152.42,-162.76,-172.17,-178.70,-189.81,-195.83,-201.90,-205.37,-213.87,-221.85,-227.22,-231.08,-239.15,-241.06,-248.21,-249.54,-250.05,-251.94,-259.80,-255.00,-253.19,-254.88,-249.32,-251.74,-248.30,-249.73,-240.05,-240.90,-229.07,-224.01,-228.44,-224.32,-221.84,-223.01,-219.13,-220.28,-223.32,-219.30,-219.65,-226.95,-222.94,-225.27,-225.03,-224.16,-226.59,-229.19,-233.87,-237.56,-244.83,-240.54,-242.98,-252.28,-249.47,-250.27,-256.85,-254.01,-259.63,-257.95,-258.98,-252.36,-249.67,-249.14,-245.74,-229.40,-227.68,-218.33,-209.00,-196.92,-179.46,-165.43,-152.71,-134.50,-122.84,-107.49,-96.36,-87.83,-77.76,-71.27,-68.05,-72.82,-66.77,-69.96,-72.32,-82.32,-84.04,-84.20,-91.00,-84.71,-93.36,-96.23,-96.38,-98.25,-99.82,-109.44,-111.00,-113.63,-115.78,-123.19,-127.77,-131.17,-139.93,-144.25,-151.25,-153.15,-159.99,-173.58,-170.36,-170.80,-176.47,-184.13,-183.84,-190.32,-190.43,-193.13,-192.12,-188.24,-198.63,-193.96,-199.30,-202.12,-202.02,-207.08,-211.22,-217.97,-224.75,-231.26,-239.33,-247.56,-254.84,-264.26,-267.26,-282.79,-289.99,-289.98,-299.56,-311.81,-314.18,-325.05,-329.40,-337.67,-343.47,-351.19,-360.40,-365.97,-370.53,-379.88,-382.98,-386.54,-389.88,-394.78,-393.95,-401.60,-398.93,-398.02,-391.76,-401.83,-401.93,-392.33,-390.84,-387.56,-389.24,-380.13,-373.53,-371.58,-365.25,-356.10,-348.87,-336.98,-331.21,-323.42,-306.12,-300.21,-290.60,-283.82,-273.65,-261.17,-246.38,-241.70,-232.75,-221.03,-210.45,-196.34,-180.16,-176.55,-160.25,-149.91,-136.74,-125.75,-117.48,-100.88,-84.82,-74.09,-62.44,-46.90,-35.97,-23.69,-9.98,5.67,24.36,32.87,47.59,66.89,78.93,95.18,106.90,115.52,123.71,128.12,127.30,131.30,130.99,133.01,130.45,120.42,114.39,105.12,98.66,91.07,89.81,83.32,70.75,69.89,65.20,53.63,63.90,65.10,60.20,56.02,59.79
25.04,19.29,4.76,2.45,-5.58,-8.58,-10.07,-11.99,-14.53,-15.10,-21.08,-24.54,-24.63,-25.59,-32.63,-32.32,-33.31,-34.64,-32.59,-28.62,-24.37,-17.20,-7.13,8.45,21.54,39.66,54.09,72.34,88.13,99.61,106.87,117.71,129.28,130.14,126.33,120.46,107.72,93.33,76.75,58.82,36.39,9.90,-16.28,-42.42,-68.41,-96.23,-111.11,-131.28,-149.42,-163.00,-171.74,-186.28,-190.48,-198.24,-192.56,-196.65,-200.30,-193.38,-185.44,-182.40,-175.11,-174.21,-166.36,-161.90,-156.34,-154.08,-153.82,-140.94,-140.86,-129.14,-126.95,-123.50,-119.34,-113.02,-107.09,-106.70,-104.47,-101.15,-91.97,-92.79,-96.03,-86.47,-85.09,-78.73,-75.46,-62.69,-61.21,-53.49,-45.18,-42.55,-29.90,-32.76,-17.77,-12.94,-3.29,2.10,11.79,18.47,23.78,30.15,38.97,36.47,44.77,40.67,44.95,43.19,44.46,42.92,42.65,42.17,40.43,42.61,40.52,43.48,38.55,37.36,40.50,36.01,42.67,39.60,43.62,43.50,44.30,47.68,46.45,52.87,60.36,59.90,69.72,75.26,75.83,84.27,85.38,87.96,85.30,82.03,83.66,77.73,76.60,69.59,66.03,62.62,65.68,62.10,55.77,58.37,60.03,64.18,61.19,66.63,70.88,66.77,73.81,76.31,86.27,89.02,91.54,95.09,100.49,103.62,107.73,109.80,114.00,111.05,113.90,109.98,107.43,108.34,106.09,103.72,104.31,109.29,103.90,105.12,101.76,103.81,96.01,98.48,92.94,84.13,81.01,70.49,65.02,51.14,36.19,26.93,20.53,4.45,-1.69,-18.31,-17.33,-28.39,-37.22,-44.02,-52.98,-61.10,-65.24,-73.27,-81.56,-81.19,-93.12,-100.98,-107.17,-114.62,-122.38,-133.04,-133.91,-147.13,-149.03,-163.87,-166.55,-174.10,-184.22,-196.41,-198.99,-203.01,-216.41,-220.22,-227.43,-229.13,-231.18,-239.52,-244.93,-241.30,-247.66,-249.78,-250.94,-253.15,-247.85,-245.80,-246.56,-241.43,-245.32,-237.28,-234.66,-229.19,-229.26,-227.91,-222.09,-219.81,-215.42,-216.46,-215.85,-222.65,-215.63,-216.63,-218.72,-227.54,-221.69,-224.58,-225.28,-227.71,-226.49,-232.16,-230.88,-230.04,-236.90,-238.94,-243.45,-240.58,-247.11,-248.36,-246.41,-248.37,-254.25,-248.76,-250.05,-248.07,-241.58,-239.35,-233.42,-232.42,-218.37,-214.51,-203.29,-189.31,-174.13,-157.95,-146.40,-127.18,-112.22,-107.22,-89.28,-82.53,-72.53,-72.12,-62.82,-65.64,-61.52,-65.70,-68.11,-70.52,-71.56,-76.30,-77.47,-81.40,-86.74,-85.17,-87.36,-94.69,-95.19,-96.39,-102.19,-106.39,-113.80,-120.11,-123.51,-137.89,-135.04,-139.58,-146.14,-153.51,-156.14,-161.30,-172.55,-174.16,-176.82,-179.96,-181.77,-183.93,-186.36,-186.24,-189.02,-185.71,-185.22,-187.64,-190.48,-193.61,-197.70,-199.96,-206.02,-209.89,-220.49,-224.05,-233.82,-241.60,-252.06,-259.96,-266.11,-272.71,-288.91,-292.03,-303.19,-307.80,-312.57,-320.07,-325.67,-335.80,-347.64,-349.80,-353.98,-360.58,-367.20,-375.14,-376.10,-383.43,-390.92,-392.07,-392.21,-397.79,-397.63,-399.05,-395.68,-397.44,-392.73,-392.11,-394.66,-386.12,-384.29,-375.82,-373.01,-363.51,-356.19,-353.93,-342.02,-338.34,-327.75,-318.89,-310.16,-298.19,-286.03,-277.60,-268.50,-261.11,-253.31,-237.03,-229.48,-217.22,-202.75,-194.90,-182.49,-168.69,-157.02,-146.83,-137.73,-122.83,-109.18,-97.05,-82.00,-73.16,-62.40,-46.66,-33.41,-18.53,-1.46,6.76,24.92,39.85,52.93,68.05,81.61,94.70,111.50,117.47,121.77,130.23,139.90,134.36,126.00,129.00,125.52,119.57,116.88,106.82,96.76,91.80,83.28,77.17,75.96,72.01,65.48,59.61,62.96,58.23,56.37,53.37,54.34
26.72,15.99,11.46,0.60,-7.60,-13.46,-18.25,-21.76,-23.06,-32.36,-37.36,-40.69,-42.09,-43.20,-43.12,-49.32,-50.63,-50.63,-49.35,-45.03,-44.27,-36.30,-25.94,-7.94,5.85,21.28,44.65,56.61,72.73,87.91,106.50,112.98,125.39,126.88,125.92,125.66,114.20,102.25,88.96,69.44,52.21,31.10,9.41,-22.00,-46.91,-72.43,-90.16,-108.29,-132.66,-148.65,-150.59,-171.18,-177.15,-186.05,-190.01,-184.53,-179.96,-181.11,-183.23,-174.22,-173.86,-167.54,-159.80,-155.40,-149.43,-142.47,-140.39,-137.53,-129.66,-130.96,-122.51,-115.53,-116.85,-113.20,-103.82,-104.83,-102.18,-98.84,-98.90,-90.62,-86.35,-87.44,-81.87,-76.28,-71.58,-66.24,-67.39,-56.17,-47.79,-43.51,-34.10,-30.59,-21.95,-15.10,-5.67,2.91,5.67,16.07,22.57,26.93,33.92,34.72,37.48,39.91,39.44,41.17,47.50,39.96,40.23,42.66,39.71,40.29,39.89,43.50,43.50,45.88,45.97,49.07,45.61,44.92,46.83,54.93,47.35,57.63,60.74,62.41,63.77,72.02,73.41,78.81,84.61,85.94,86.51,89.57,90.82,90.77,86.91,85.76,78.76,73.86,75.17,66.62,67.20,66.27,56.07,61.56,58.85,59.46,61.61,61.08,70.11,70.40,77.34,79.41,83.04,85.77,91.87,98.60,101.34,104.50,109.20,114.49,113.37,116.14,107.71,112.49,110.52,107.00,108.27,108.60,105.83,101.82,105.58,106.79,103.47,101.56,97.80,97.18,90.83,95.27,81.81,71.52,63.04,51.79,43.14,33.12,19.32,10.54,2.15,-7.02,-17.68,-26.58,-32.22,-40.02,-49.93,-61.18,-61.48,-67.62,-75.10,-79.05,-88.29,-96.65,-106.72,-111.90,-119.70,-126.21,-137.66,-140.98,-151.78,-157.39,-167.33,-174.25,-183.86,-191.18,-195.03,-200.87,-209.88,-212.77,-219.04,-226.16,-233.86,-234.80,-237.93,-240.18,-244.40,-246.54,-249.36,-244.70,-244.22,-239.24,-242.42,-237.21,-236.65,-226.46,-228.03,-227.34,-220.87,-218.13,-218.33,-215.56,-217.42,-216.19,-216.56,-209.14,-213.99,-217.81,-219.30,-216.89,-218.07,-222.85,-217.18,-224.97,-225.97,-225.19,-227.71,-230.96,-232.11,-234.76,-234.88,-237.31,-237.50,-239.53,-243.66,-243.61,-240.13,-243.06,-244.56,-241.14,-237.97,-228.93,-230.40,-224.02,-214.88,-204.45,-190.30,-183.66,-170.19,-158.47,-144.12,-126.40,-114.78,-103.60,-90.20,-81.82,-71.27,-68.67,-62.83,-58.85,-60.25,-60.79,-65.23,-62.95,-66.37,-69.77,-71.39,-74.69,-75.57,-77.36,-82.86,-86.22,-90.17,-94.76,-100.00,-103.17,-109.50,-114.74,-119.68,-126.10,-129.69,-138.83,-145.42,-150.32,-154.38,-156.10,-165.19,-169.96,-171.66,-178.71,-180.38,-181.33,-185.42,-187.64,-183.16,-187.46,-182.97,-187.03,-187.81,-193.90,-191.44,-195.31,-200.37,-205.83,-219.25,-225.74,-234.18,-240.48,-250.41,-256.08,-265.58,-272.84,-280.85,-295.10,-295.72,-306.47,-310.65,-324.10,-326.12,-334.46,-337.75,-347.88,-352.40,-364.97,-366.46,-373.70,-377.36,-380.91,-386.25,-385.79,-387.49,-393.95,-392.07,-397.84,-390.65,-392.08,-391.10,-384.71,-385.33,-375.88,-381.51,-376.60,-366.78,-363.57,-353.53,-351.72,-338.50,-333.42,-324.47,-318.51,-302.96,-294.90,-284.50,-279.15,-265.78,-254.80,-247.30,-231.51,-220.11,-215.14,-200.57,-187.17,-173.75,-164.57,-157.53,-145.53,-130.59,-117.38,-106.88,-95.58,-79.82,-66.42,-56.89,-42.93,-27.82,-16.69,0.61,11.60,29.85,40.41,62.66,71.05,86.55,100.94,108.93,119.68,126.82,137.36,139.35,134.16,131.84,132.30,126.12,123.40,113.14,104.44,94.30,87.99,80.54,75.15,69.76,65.16,62.43,60.81,59.53,57.30,50.56,50.28,52.09
21.55,16.37,4.31,-3.21,-12.04,-14.22,-24.65,-28.68,-26.96,-42.36,-44.50,-44.09,-50.88,-53.93,-62.56,-63.06,-65.35,-66.25,-65.66,-68.71,-58.87,-47.19,-41.18,-29.59,-13.06,9.11,18.82,46.18,64.56,79.33,104.52,112.23,119.94,128.46,129.31,127.19,121.36,110.54,102.04,83.62,68.57,48.11,25.66,-0.79,-25.21,-46.21,-68.23,-89.85,-105.08,-121.80,-136.16,-145.82,-157.55,-167.04,-164.77,-168.92,-167.45,-167.82,-168.06,-166.42,-157.33,-156.69,-148.86,-152.19,-141.24,-137.23,-130.53,-131.57,-126.79,-119.06,-116.06,-117.58,-115.67,-109.87,-104.86,-103.02,-102.45,-94.08,-97.61,-92.99,-93.86,-89.26,-83.83,-78.43,-80.66,-72.25,-70.35,-63.20,-48.96,-47.80,-33.46,-34.82,-21.91,-15.41,-7.91,-3.58,6.60,14.79,20.52,28.18,30.69,34.50,38.51,42.86,46.86,40.66,37.23,45.14,46.64,40.71,47.66,46.83,43.39,40.90,47.11,52.87,50.10,52.94,49.77,57.43,55.94,60.99,57.86,58.99,68.73,72.14,72.82,84.94,83.94,87.36,92.43,95.30,98.53,94.63,95.57,92.89,90.64,90.56,81.94,77.82,74.39,70.65,67.69,66.98,64.82,64.47,65.42,66.63,68.08,69.69,70.96,69.41,73.93,78.33,83.22,86.35,90.72,93.94,100.89,105.92,108.25,110.58,113.45,114.94,113.88,113.34,112.89,108.21,110.62,105.14,104.39,98.77,102.45,99.93,105.43,103.46,97.88,95.39,88.80,85.09,81.97,76.04,64.01,55.02,45.11,33.27,24.93,13.35,5.75,-5.47,-18.10,-21.81,-30.91,-40.19,-46.57,-56.00,-63.28,-68.42,-73.46,-79.98,-90.72,-94.83,-104.65,-108.98,-117.08,-123.80,-133.72,-136.58,-142.81,-156.17,-165.23,-173.92,-181.97,-183.62,-194.50,-203.40,-209.35,-215.55,-214.75,-219.37,-227.93,-232.08,-239.64,-240.46,-240.91,-238.21,-234.01,-237.64,-238.71,-236.06,-233.71,-231.91,-228.27,-228.85,-223.11,-219.28,-218.46,-213.15,-210.93,-208.31,-212.51,-216.64,-208.77,-216.38,-210.09,-212.71,-218.66,-219.73,-223.07,-226.65,-220.39,-222.90,-220.46,-220.94,-229.55,-225.98,-221.93,-231.04,-226.93,-230.24,-231.63,-233.66,-237.58,-239.08,-236.90,-237.86,-232.90,-227.34,-226.30,-227.79,-218.86,-213.54,-207.52,-194.74,-192.96,-178.15,-161.42,-148.78,-137.04,-124.73,-111.57,-95.73,-82.60,-71.81,-70.26,-62.82,-60.79,-55.28,-54.24,-58.34,-60.69,-54.65,-60.95,-62.96,-68.41,-68.16,-71.98,-74.45,-78.49,-76.84,-85.60,-86.37,-96.76,-95.82,-104.85,-109.70,-121.80,-122.21,-124.49,-135.58,-135.53,-152.14,-155.56,-157.28,-165.59,-162.15,-174.04,-172.70,-178.84,-183.82,-180.47,-181.63,-180.03,-179.03,-183.15,-179.71,-182.89,-187.09,-189.68,-191.98,-196.14,-203.86,-211.39,-220.75,-227.22,-235.70,-240.46,-256.70,-259.92,-269.89,-280.40,-283.43,-296.25,-302.97,-311.98,-316.66,-325.45,-334.64,-338.12,-341.64,-353.32,-355.49,-364.63,-367.16,-371.34,-373.61,-382.21,-383.62,-386.78,-385.34,-386.63,-388.26,-388.82,-385.70,-389.70,-384.24,-379.42,-382.14,-375.86,-371.40,-366.07,-354.77,-357.99,-346.74,-336.57,-327.68,-318.34,-315.43,-299.36,-289.76,-284.40,-274.47,-264.78,-256.81,-235.63,-229.75,-223.59,-213.92,-199.78,-187.36,-173.21,-161.02,-151.34,-140.13,-127.66,-113.16,-103.79,-90.32,-81.81,-65.65,-54.41,-38.97,-27.31,-11.68,-0.44,13.42,28.57,43.49,60.86,76.35,88.45,101.01,112.20,124.03,126.00,134.28,136.73,138.76,132.58,134.57,124.75,115.17,109.34,104.46,94.29,85.44,83.69,75.46,68.11,64.78,62.74,60.50,53.84,55.46,57.15,50.10,52.28
22.26,14.91,0.50,-5.89,-14.30,-18.07,-23.47,-31.81,-35.65,-47.11,-56.60,-53.85,-57.86,-65.49,-70.41,-71.91,-72.19,-76.55,-75.08,-73.25,-69.71,-60.94,-55.37,-42.34,-26.63,-6.67,15.38,33.98,45.94,78.81,89.57,106.11,115.66,119.25,128.42,124.86,125.76,119.65,111.11,94.72,74.00,61.43,43.75,21.00,-1.20,-24.19,-42.98,-61.89,-85.21,-100.06,-114.63,-131.52,-141.70,-144.26,-153.98,-155.81,-155.40,-158.40,-155.06,-151.51,-154.21,-146.05,-146.28,-140.50,-136.20,-137.58,-129.86,-129.23,-126.05,-119.45,-113.90,-111.76,-112.78,-111.46,-106.70,-101.99,-100.48,-101.82,-97.94,-96.12,-98.18,-85.33,-83.04,-76.62,-72.48,-70.53,-63.01,-60.35,-52.61,-48.02,-39.55,-30.63,-22.74,-22.16,-6.27,-3.53,5.77,9.80,19.02,29.73,31.88,35.03,42.35,37.76,41.51,44.83,44.83,44.82,46.76,47.15,47.73,44.57,49.47,53.85,51.42,53.40,57.23,61.66,58.79,60.90,60.02,64.79,71.18,70.04,72.70,78.17,82.23,89.49,88.69,91.74,101.82,102.64,99.65,105.50,96.38,101.18,98.27,95.17,83.97,82.42,74.61,78.15,73.20,69.37,65.57,66.04,66.39,69.66,69.35,68.18,69.03,74.62,78.61,82.64,81.69,87.23,94.20,95.37,101.84,105.32,106.68,114.25,112.38,111.45,115.54,116.50,111.30,107.45,104.41,106.03,111.03,105.16,101.37,101.98,99.70,101.45,95.14,97.43,92.91,92.03,83.31,77.24,68.34,57.87,49.05,38.02,24.27,18.39,6.54,1.58,-13.73,-23.86,-26.70,-42.55,-41.73,-48.86,-59.09,-65.75,-74.50,-80.47,-84.89,-90.89,-100.34,-107.82,-113.60,-119.78,-129.16,-136.13,-145.55,-157.53,-158.52,-174.15,-178.32,-182.69,-191.76,-196.58,-199.60,-212.79,-213.61,-223.09,-223.86,-228.59,-233.50,-228.78,-232.89,-231.02,-236.54,-231.18,-231.31,-233.78,-230.59,-227.70,-221.10,-217.92,-211.66,-215.02,-209.20,-208.23,-209.78,-205.72,-208.83,-208.59,-209.96,-213.40,-212.52,-213.69,-213.83,-218.68,-219.37,-222.62,-221.62,-222.73,-220.61,-219.79,-219.52,-219.68,-221.65,-223.91,-228.32,-224.14,-228.32,-227.27,-227.46,-229.68,-229.36,-226.75,-226.33,-224.73,-223.46,-215.67,-217.32,-202.35,-200.05,-192.84,-184.75,-172.21,-156.14,-144.33,-132.89,-119.19,-104.67,-92.25,-78.72,-73.07,-58.23,-58.63,-53.76,-50.29,-55.72,-53.72,-53.58,-51.28,-55.84,-57.32,-57.43,-59.80,-60.71,-71.32,-72.62,-76.20,-81.87,-83.92,-88.82,-100.91,-100.97,-110.57,-115.09,-123.68,-125.58,-135.85,-139.54,-143.64,-149.76,-157.77,-160.67,-164.96,-166.89,-172.20,-174.79,-176.59,-180.53,-175.30,-174.79,-173.84,-176.69,-181.22,-184.11,-180.37,-185.84,-189.11,-193.98,-199.19,-208.57,-213.68,-226.11,-234.07,-240.91,-252.64,-257.35,-271.35,-275.32,-289.10,-294.98,-299.40,-304.34,-314.49,-320.78,-328.05,-336.35,-348.01,-350.07,-355.18,-361.25,-367.45,-363.89,-373.46,-378.58,-370.75,-377.69,-384.22,-385.07,-386.77,-387.08,-384.67,-380.17,-376.11,-374.07,-370.75,-370.39,-364.10,-359.56,-354.64,-345.35,-339.55,-333.17,-327.45,-313.58,-310.95,-301.87,-294.20,-278.69,-267.31,-260.99,-247.43,-234.03,-224.58,-216.78,-202.56,-191.09,-179.93,-169.81,-163.95,-144.76,-136.35,-126.26,-110.60,-101.41,-95.44,-73.00,-64.40,-50.45,-36.77,-24.02,-8.95,6.92,20.50,31.35,45.32,62.43,75.71,89.22,101.58,117.90,124.94,129.79,135.44,138.32,135.25,134.69,124.37,124.13,118.41,110.36,101.02,89.59,86.01,80.66,74.41,66.61,62.99,58.08,57.36,52.49,50.68,50.61,49.85,46.11
20.90,11.27,-3.38,-8.35,-18.06,-23.90,-33.26,-39.62,-45.84,-46.54,-55.53,-59.51,-65.22,-72.89,-74.94,-79.85,-85.28,-85.84,-81.65,-87.78,-82.04,-73.13,-68.50,-53.09,-34.45,-20.67,2.53,18.06,44.56,66.49,74.83,98.97,108.03,117.43,122.37,124.99,128.99,122.12,110.97,107.73,92.95,75.59,62.16,41.59,20.92,-5.96,-21.72,-40.92,-63.65,-81.07,-100.82,-114.53,-118.22,-129.94,-137.61,-141.04,-139.63,-138.81,-140.52,-141.63,-135.11,-139.20,-137.62,-130.01,-127.17,-125.61,-122.69,-123.99,-118.09,-119.24,-112.90,-107.99,-107.95,-108.56,-104.62,-103.36,-101.69,-99.44,-99.36,-93.18,-91.44,-84.77,-83.23,-76.34,-72.25,-74.38,-67.08,-62.95,-55.74,-48.28,-34.96,-27.99,-23.29,-17.34,-12.06,-1.91,7.33,12.16,23.07,30.39,28.38,33.61,35.86,37.76,38.17,39.53,39.08,44.33,45.57,48.97,44.28,45.96,47.86,51.67,60.73,57.00,62.45,68.86,67.86,68.66,65.69,74.16,78.64,80.23,83.76,84.99,96.83,95.36,102.29,104.04,106.10,108.24,112.68,108.03,108.71,105.56,99.01,94.27,92.84,91.52,79.03,77.17,75.21,72.79,70.28,75.55,68.29,65.18,73.27,68.02,72.28,72.82,75.37,77.23,85.73,90.39,93.36,99.94,98.33,103.29,105.55,111.07,112.19,108.78,116.05,109.85,107.00,106.10,110.58,109.99,104.04,105.29,100.01,103.01,101.90,96.78,98.37,96.26,90.84,90.46,80.07,78.26,72.68,60.87,52.27,42.29,32.20,18.91,10.98,1.20,-12.64,-19.06,-28.25,-35.52,-39.09,-50.15,-57.21,-62.66,-70.25,-78.52,-82.77,-90.06,-98.72,-103.81,-112.77,-117.20,-131.53,-136.06,-142.18,-151.12,-161.56,-160.70,-172.91,-183.16,-184.97,-194.34,-196.81,-206.10,-208.17,-214.77,-218.81,-223.90,-226.10,-226.26,-229.14,-231.48,-230.89,-226.85,-224.88,-222.07,-222.71,-214.47,-213.25,-212.67,-209.55,-205.52,-207.18,-207.59,-203.11,-203.47,-206.62,-207.69,-205.44,-209.46,-215.76,-220.00,-220.86,-212.71,-219.26,-219.02,-212.83,-221.52,-216.98,-219.86,-217.04,-217.96,-224.14,-221.59,-221.71,-219.02,-221.30,-219.25,-218.50,-215.53,-218.05,-218.84,-216.92,-219.82,-214.31,-211.83,-201.98,-196.92,-196.15,-181.27,-170.68,-163.55,-147.40,-136.15,-126.66,-114.04,-91.85,-87.50,-76.05,-72.28,-57.44,-54.45,-52.42,-46.17,-52.87,-50.42,-48.89,-51.28,-49.00,-51.31,-51.57,-56.55,-62.36,-64.03,-65.79,-72.61,-76.60,-83.58,-87.12,-93.26,-94.95,-111.39,-112.84,-114.66,-122.94,-127.09,-140.23,-142.96,-151.88,-155.57,-154.57,-165.22,-166.76,-171.39,-170.74,-176.88,-174.24,-172.50,-175.79,-171.48,-173.59,-176.06,-177.95,-175.49,-181.72,-185.34,-185.09,-194.24,-206.29,-212.40,-219.05,-232.41,-236.56,-248.28,-252.71,-267.85,-274.09,-285.35,-291.45,-300.08,-303.14,-316.68,-326.31,-324.96,-331.70,-339.73,-343.20,-353.67,-349.83,-360.29,-359.86,-369.02,-372.70,-374.37,-374.08,-373.55,-372.94,-374.71,-380.87,-377.21,-376.74,-373.89,-370.30,-370.13,-359.57,-361.22,-353.28,-353.14,-338.25,-334.59,-329.50,-319.81,-311.05,-302.64,-294.42,-287.17,-270.11,-263.41,-255.46,-243.78,-229.64,-218.87,-211.98,-201.89,-190.87,-176.10,-164.35,-156.98,-143.31,-134.10,-124.89,-107.99,-97.73,-85.33,-70.45,-63.06,-52.08,-32.63,-15.80,-3.77,6.09,23.19,38.50,53.42,65.17,79.35,88.46,107.05,119.05,128.28,129.56,136.23,137.75,134.99,136.68,129.12,121.40,117.97,108.54,96.98,86.19,80.99,76.27,68.65,61.78,59.79,52.64,55.55,57.28,51.99,52.63,47.06,47.47
21.70,11.88,2.51,-5.25,-14.64,-23.43,-34.30,-43.92,-43.23,-50.63,-60.05,-58.69,-72.01,-75.35,-80.87,-86.40,-89.63,-92.44,-93.76,-89.73,-85.87,-83.83,-74.83,-60.95,-46.72,-29.86,-10.52,10.95,33.10,49.43,70.84,85.96,96.79,111.09,126.12,129.16,123.17,124.78,121.26,113.97,101.92,92.23,78.80,60.71,37.97,16.41,1.42,-23.62,-37.24,-53.51,-72.19,-90.64,-102.67,-110.06,-113.52,-123.24,-130.13,-129.76,-125.04,-133.86,-125.91,-128.75,-125.01,-122.00,-124.20,-117.35,-116.98,-112.70,-113.09,-107.29,-114.24,-106.46,-105.67,-107.25,-99.57,-103.82,-97.47,-98.31,-89.51,-91.29,-88.54,-82.98,-83.56,-78.35,-78.46,-70.11,-64.54,-63.52,-51.22,-42.05,-36.04,-27.40,-21.05,-14.68,-11.43,-1.37,8.38,13.50,18.58,32.79,33.84,39.06,34.82,37.79,38.42,35.76,42.66,41.62,42.94,44.06,47.99,52.61,51.15,55.71,59.16,62.75,64.30,70.98,72.83,75.24,80.06,81.92,83.49,89.79,93.21,92.06,103.57,102.13,109.18,111.61,115.67,115.58,117.99,119.65,112.97,109.95,104.96,102.69,96.13,92.00,84.00,82.80,74.57,77.42,72.34,71.54,72.06,68.91,69.34,78.77,74.11,78.31,76.65,80.60,82.37,91.18,92.13,94.47,100.55,101.19,102.80,111.57,110.05,112.71,111.42,112.69,105.79,107.20,102.94,109.92,104.54,101.99,99.62,103.69,104.49,99.92,98.34,96.42,91.53,88.47,79.17,74.86,70.91,60.97,55.42,39.73,35.41,21.17,11.14,1.44,-8.19,-13.66,-25.05,-36.30,-38.51,-45.69,-53.90,-60.36,-67.36,-72.30,-77.24,-90.70,-90.13,-98.58,-110.14,-116.19,-121.30,-130.59,-138.54,-144.92,-159.06,-164.99,-170.36,-174.37,-179.21,-188.26,-197.13,-201.45,-208.03,-212.01,-216.24,-216.23,-219.10,-219.38,-222.61,-224.61,-222.11,-219.34,-219.14,-215.12,-215.13,-216.38,-207.58,-204.67,-199.71,-203.68,-199.54,-198.81,-199.79,-203.43,-202.05,-203.63,-206.22,-206.46,-205.80,-210.00,-215.75,-212.60,-213.40,-215.45,-213.19,-217.74,-211.68,-216.10,-222.12,-210.28,-218.24,-215.12,-215.53,-214.76,-213.74,-210.95,-211.81,-212.43,-212.78,-211.02,-206.27,-206.34,-206.02,-199.10,-191.50,-192.02,-187.39,-174.27,-163.17,-149.92,-144.05,-130.34,-118.40,-103.30,-96.20,-79.33,-72.11,-68.70,-59.86,-53.76,-52.30,-49.75,-48.07,-47.36,-50.82,-43.65,-43.66,-52.65,-49.99,-53.72,-56.97,-62.19,-65.39,-63.91,-73.26,-81.37,-90.98,-95.14,-100.49,-108.99,-112.62,-119.63,-123.19,-132.89,-135.26,-140.35,-146.20,-152.33,-154.56,-161.79,-168.54,-167.83,-169.15,-172.99,-172.25,-177.12,-171.13,-171.13,-172.66,-169.74,-176.13,-173.65,-177.49,-183.60,-188.20,-194.45,-201.09,-209.77,-222.46,-226.24,-235.38,-246.57,-253.46,-266.69,-268.68,-282.80,-285.62,-294.79,-301.16,-305.54,-313.48,-323.07,-325.70,-327.38,-333.33,-340.53,-346.62,-354.09,-355.01,-359.79,-364.02,-365.71,-369.21,-363.09,-370.95,-368.50,-370.47,-373.10,-368.96,-366.83,-360.87,-361.97,-360.67,-356.72,-346.41,-345.07,-337.07,-334.80,-318.93,-317.59,-304.49,-295.15,-283.29,-281.55,-268.95,-251.65,-250.25,-238.57,-225.97,-214.96,-201.89,-197.32,-186.47,-173.90,-159.01,-153.57,-141.49,-130.56,-117.98,-106.85,-92.55,-81.89,-66.26,-56.19,-47.85,-26.25,-14.65,0.10,10.59,30.94,42.39,57.18,64.47,83.55,98.85,109.99,118.15,120.98,134.31,138.19,142.04,138.58,133.85,128.22,121.44,112.02,103.72,96.85,91.36,82.58,75.04,64.18,65.17,59.58,61.49,52.85,52.45,50.42,48.07,47.54,46.02
22.87,12.01,3.14,-9.49,-14.40,-25.14,-32.60,-38.81,-51.76,-55.10,-61.10,-67.81,-71.19,-78.32,-80.40,-86.52,-92.84,-93.40,-98.10,-98.31,-93.59,-86.64,-78.76,-67.96,-57.26,-41.01,-27.13,-4.55,24.12,40.77,59.22,80.56,95.37,108.05,116.21,123.86,129.33,130.80,125.44,121.97,108.11,99.73,87.95,71.21,56.18,46.14,25.56,-1.17,-17.34,-35.55,-53.06,-69.95,-80.17,-93.05,-103.34,-108.77,-109.33,-117.03,-119.22,-118.90,-116.51,-122.39,-116.56,-116.53,-113.56,-112.84,-108.14,-112.80,-111.97,-109.81,-105.89,-102.11,-99.87,-103.41,-95.96,-98.21,-97.35,-95.59,-90.10,-93.48,-87.70,-85.21,-85.51,-84.77,-73.52,-71.87,-63.95,-57.36,-54.93,-44.19,-37.73,-30.08,-22.05,-13.87,-7.70,12.31,5.33,17.08,20.91,24.52,31.85,36.06,36.07,37.70,39.16,39.14,42.61,39.18,40.63,48.60,43.89,50.56,51.29,57.58,60.36,68.04,73.97,70.72,75.26,79.93,84.48,90.99,90.18,96.08,100.35,104.13,111.08,113.18,113.53,117.47,122.92,129.04,125.81,125.62,120.54,116.98,112.99,107.37,102.29,99.18,91.63,86.68,87.10,81.19,73.06,73.75,71.45,75.59,77.60,76.83,75.52,81.71,80.00,83.88,85.34,84.73,89.88,95.69,98.90,101.10,103.60,108.78,111.82,111.33,115.20,114.00,109.07,110.85,114.39,103.54,105.39,98.16,102.99,102.40,99.03,97.45,96.87,92.04,91.56,88.52,86.08,72.51,71.70,61.17,54.60,50.14,34.02,21.98,11.45,6.10,-0.49,-16.68,-19.26,-30.82,-36.89,-40.82,-52.05,-57.00,-66.56,-72.54,-78.86,-86.22,-97.88,-99.61,-105.75,-114.36,-120.09,-129.15,-141.02,-146.16,-155.04,-166.45,-164.45,-166.65,-182.02,-185.95,-194.43,-196.82,-199.04,-205.02,-207.36,-209.16,-210.88,-216.09,-219.99,-219.73,-218.05,-217.23,-218.29,-212.52,-209.43,-209.03,-203.89,-203.79,-197.73,-198.43,-194.28,-193.09,-192.91,-191.55,-196.52,-200.00,-200.08,-208.97,-208.64,-211.10,-213.83,-213.99,-209.35,-215.82,-214.23,-217.47,-216.88,-216.64,-215.36,-208.84,-212.60,-212.57,-208.59,-208.60,-203.76,-206.29,-202.80,-208.29,-204.51,-201.03,-202.74,-198.49,-198.68,-192.04,-190.77,-183.17,-177.36,-166.47,-155.18,-149.49,-133.65,-124.66,-116.67,-97.95,-88.01,-80.02,-68.19,-57.70,-56.58,-49.10,-52.48,-44.73,-42.75,-41.70,-45.89,-43.90,-42.49,-44.88,-47.69,-48.04,-55.03,-58.67,-61.32,-65.59,-73.84,-77.04,-83.79,-89.98,-103.57,-107.72,-113.38,-122.20,-125.91,-132.62,-141.54,-143.87,-145.99,-146.38,-158.18,-155.71,-162.24,-165.49,-169.56,-170.28,-170.90,-169.00,-171.38,-166.48,-173.83,-167.57,-173.88,-175.35,-175.54,-183.44,-181.76,-192.35,-199.17,-207.66,-214.19,-227.80,-238.04,-243.70,-253.36,-262.53,-267.21,-278.08,-287.89,-283.81,-299.67,-302.55,-310.40,-322.14,-323.39,-327.25,-338.17,-339.33,-342.61,-345.98,-345.74,-352.91,-356.71,-355.49,-361.92,-356.83,-364.23,-363.88,-363.49,-360.82,-359.07,-358.78,-358.65,-357.39,-350.08,-345.49,-339.87,-340.02,-330.61,-327.14,-316.46,-310.49,-302.53,-288.78,-280.11,-272.93,-265.18,-251.90,-241.30,-233.29,-220.81,-212.30,-203.09,-190.34,-183.12,-171.88,-162.54,-143.57,-137.45,-121.41,-117.95,-95.12,-89.96,-76.58,-68.04,-52.90,-41.36,-28.97,-14.04,-3.74,19.49,28.43,46.76,65.80,71.32,87.94,101.30,108.68,123.91,133.04,134.05,139.18,138.78,135.96,134.86,124.62,118.11,107.38,101.14,96.20,85.35,76.58,66.74,61.80,57.38,56.91,58.10,52.67,48.93,49.83,45.61,39.28,47.85
24.38,7.46,-7.72,-11.46,-16.89,-28.35,-31.95,-38.84,-51.68,-52.50,-58.55,-66.44,-73.27,-75.51,-79.28,-88.34,-91.62,-93.66,-92.93,-94.53,-97.35,-88.90,-90.52,-74.33,-56.00,-50.96,-30.60,-12.04,8.77,32.63,52.47,70.70,86.28,101.92,110.07,121.55,126.90,126.44,127.78,125.07,118.81,109.68,98.52,85.38,72.77,57.80,44.20,18.32,6.67,-8.12,-34.88,-40.91,-55.47,-71.49,-82.63,-92.11,-97.93,-102.60,-106.43,-109.10,-103.65,-110.15,-111.09,-109.00,-105.85,-110.01,-105.10,-105.69,-106.24,-102.49,-98.78,-100.68,-97.94,-97.97,-88.82,-95.15,-88.57,-89.21,-90.63,-90.03,-86.26,-81.53,-78.63,-78.26,-70.59,-68.53,-57.06,-57.70,-51.48,-40.46,-34.91,-24.94,-14.58,-5.70,-6.03,4.10,13.50,20.45,19.12,26.14,35.50,32.35,37.54,40.09,40.61,38.50,43.02,40.55,38.21,39.36,47.13,52.20,52.64,60.09,60.30,69.21,75.06,77.41,77.71,83.24,89.36,95.41,98.87,100.08,111.06,116.87,118.47,121.95,122.48,122.71,131.06,132.73,135.31,131.63,130.79,124.15,120.88,109.61,108.46,100.57,96.43,93.10,86.35,80.44,80.91,76.97,80.35,79.75,78.47,80.60,78.57,79.01,82.11,83.41,82.60,89.36,84.16,97.03,98.85,96.86,104.69,107.59,109.35,110.20,106.99,113.26,106.38,107.23,103.00,105.83,102.73,98.69,105.90,95.91,98.18,96.91,93.81,94.19,91.84,87.84,80.16,77.23,73.56,63.29,55.01,46.31,37.91,30.98,18.98,10.17,1.96,-8.30,-19.77,-27.15,-34.43,-38.04,-52.49,-56.18,-62.94,-72.12,-77.41,-85.05,-87.87,-98.10,-107.65,-116.86,-120.98,-124.79,-136.94,-145.62,-148.45,-157.38,-163.31,-164.48,-174.04,-184.58,-190.71,-197.58,-198.22,-199.61,-209.11,-205.98,-208.59,-210.77,-213.89,-212.25,-210.27,-209.44,-208.56,-206.06,-201.07,-202.44,-196.45,-191.03,-194.40,-192.01,-194.53,-190.03,-188.16,-190.53,-196.57,-198.27,-201.18,-199.93,-210.34,-210.12,-209.48,-211.47,-216.77,-209.99,-215.83,-215.72,-214.31,-212.37,-208.33,-206.86,-205.01,-210.47,-205.46,-205.20,-201.87,-199.21,-201.65,-198.55,-198.43,-198.99,-196.94,-187.71,-182.72,-186.03,-177.47,-173.22,-169.60,-155.69,-148.68,-143.28,-126.66,-112.87,-109.15,-97.94,-84.08,-72.86,-68.94,-59.64,-53.72,-46.48,-49.25,-42.64,-37.98,-38.89,-34.84,-39.61,-40.36,-44.25,-42.05,-42.76,-57.26,-59.36,-60.01,-64.34,-71.11,-81.62,-86.11,-95.48,-107.39,-108.54,-117.43,-120.86,-124.36,-133.50,-140.65,-140.63,-142.48,-152.64,-154.86,-155.77,-163.06,-161.38,-170.69,-167.04,-165.12,-171.23,-169.84,-177.21,-171.82,-170.39,-168.29,-169.25,-173.55,-183.09,-184.44,-190.77,-196.04,-204.01,-214.64,-222.16,-234.24,-238.49,-252.13,-258.77,-262.83,-271.94,-281.77,-286.17,-292.31,-294.23,-302.17,-308.06,-317.25,-322.14,-326.51,-325.08,-334.66,-338.33,-344.56,-347.52,-346.92,-346.74,-351.66,-352.94,-349.81,-354.52,-354.63,-351.48,-350.86,-352.80,-349.85,-345.37,-342.50,-335.15,-335.11,-327.42,-322.18,-315.83,-311.36,-302.43,-294.17,-282.15,-277.40,-267.41,-257.73,-243.27,-235.96,-226.14,-217.01,-207.96,-193.66,-186.66,-170.31,-163.76,-151.64,-142.20,-124.37,-122.34,-109.20,-98.96,-87.98,-72.11,-61.85,-49.32,-36.58,-22.85,-13.23,1.12,14.94,32.75,47.35,61.87,77.51,90.95,98.97,114.01,124.34,128.69,132.60,140.31,136.06,137.79,131.02,123.75,118.39,108.72,99.42,88.99,86.65,73.09,71.83,59.82,59.94,56.99,52.33,51.43,50.94,48.23,50.05,50.61,48.87
26.16,15.20,4.25,-3.65,-20.20,-27.17,-33.68,-39.07,-45.42,-54.20,-59.22,-65.48,-76.67,-79.41,-88.28,-88.67,-92.18,-95.26,-98.99,-97.79,-97.65,-96.37,-92.18,-82.19,-68.25,-55.10,-37.88,-19.45,2.72,18.33,41.97,63.57,72.74,92.54,103.22,112.57,127.33,127.85,127.33,129.94,126.21,118.26,110.26,99.26,86.87,71.21,56.52,41.43,23.63,5.66,-4.81,-23.93,-40.43,-50.07,-65.21,-75.33,-84.55,-88.86,-91.49,-95.41,-98.68,-100.86,-103.41,-98.90,-96.83,-103.05,-102.25,-106.18,-100.59,-101.48,-95.45,-94.00,-99.40,-96.21,-93.40,-88.84,-88.22,-86.47,-88.32,-82.55,-87.68,-79.15,-77.03,-69.14,-70.18,-61.73,-52.84,-52.03,-43.99,-38.01,-31.98,-23.84,-13.51,-8.35,0.91,5.56,16.47,21.30,21.46,26.96,29.39,32.53,36.53,33.96,35.00,36.54,39.36,34.54,42.37,38.33,46.57,48.49,49.56,60.45,61.49,64.39,73.23,80.15,79.64,90.37,89.18,93.21,102.76,108.65,116.66,118.02,124.04,127.10,137.87,134.49,136.02,137.41,136.92,130.56,129.89,124.60,120.87,121.11,105.79,102.20,101.46,93.23,93.58,90.54,80.25,79.40,85.80,81.25,76.02,77.15,81.47,80.16,82.06,81.45,83.70,89.82,91.66,88.73,94.30,100.74,94.24,98.41,110.37,107.74,108.38,110.93,103.82,108.36,109.19,103.97,107.43,106.04,103.46,99.58,97.15,94.99,94.60,95.57,87.42,88.23,85.64,76.65,72.56,67.73,59.05,47.86,37.55,27.50,20.60,12.36,1.69,-9.11,-14.44,-24.30,-34.13,-42.26,-47.40,-54.69,-61.60,-63.67,-73.51,-80.93,-89.92,-94.66,-104.28,-105.71,-114.09,-128.56,-135.03,-136.04,-147.78,-153.17,-161.99,-174.29,-176.38,-178.34,-184.57,-190.04,-193.69,-200.38,-203.95,-208.02,-204.89,-203.97,-204.79,-204.27,-211.25,-206.04,-201.73,-200.43,-198.72,-192.74,-187.37,-193.49,-183.47,-186.63,-184.70,-185.60,-189.03,-187.46,-188.99,-194.61,-201.42,-198.93,-199.30,-205.23,-208.66,-206.92,-210.80,-211.89,-211.49,-211.72,-210.30,-208.11,-204.62,-211.50,-205.61,-199.30,-202.06,-196.67,-197.37,-192.82,-193.98,-190.12,-190.48,-186.44,-182.44,-182.22,-178.06,-177.74,-171.15,-168.39,-156.90,-148.15,-144.21,-127.34,-122.54,-108.70,-101.46,-91.29,-88.20,-72.71,-67.87,-56.70,-55.10,-50.17,-44.96,-39.76,-39.32,-39.04,-35.79,-36.10,-38.74,-44.91,-38.55,-47.16,-48.50,-54.64,-65.72,-70.63,-80.68,-87.54,-91.88,-97.28,-101.85,-111.80,-120.50,-122.93,-128.39,-133.31,-137.21,-136.80,-144.77,-153.87,-153.61,-161.20,-159.09,-163.02,-168.43,-167.63,-168.25,-164.08,-172.89,-168.62,-168.46,-169.91,-170.64,-173.82,-172.79,-178.45,-183.56,-185.98,-193.16,-199.85,-212.56,-215.84,-231.28,-238.79,-250.64,-257.15,-258.08,-270.64,-273.90,-285.56,-287.34,-300.00,-299.97,-301.82,-305.77,-311.45,-312.42,-322.14,-324.60,-328.97,-329.71,-334.59,-338.05,-336.08,-344.59,-342.10,-344.91,-349.76,-345.77,-342.94,-344.13,-345.41,-340.33,-343.24,-332.27,-333.56,-324.17,-320.40,-320.23,-309.53,-302.90,-296.88,-284.92,-283.73,-272.75,-261.13,-246.88,-238.76,-232.89,-223.31,-207.97,-198.66,-190.96,-177.67,-166.50,-159.94,-146.91,-141.06,-124.32,-113.90,-104.13,-94.41,-82.91,-64.89,-53.52,-37.74,-34.88,-18.62,-7.26,4.60,22.66,40.20,50.98,66.78,83.34,92.15,103.83,120.09,124.72,136.87,137.73,139.11,139.43,133.12,128.20,119.99,111.96,103.35,97.89,88.04,80.19,70.65,70.04,65.32,56.58,53.46,53.35,51.60,48.81,48.10,42.22,42.48,49.02
22.17,15.39,6.02,-5.21,-15.22,-19.77,-33.36,-37.21,-39.92,-50.56,-61.71,-67.50,-73.52,-75.01,-83.74,-86.02,-95.34,-89.64,-97.54,-96.77,-99.14,-97.66,-87.76,-83.54,-76.16,-59.61,-43.55,-28.61,-12.96,13.61,32.00,46.74,65.61,82.54,99.67,109.02,119.91,122.27,129.55,130.63,128.26,119.02,118.90,109.66,106.19,88.45,71.67,60.43,41.49,26.61,6.59,-3.49,-23.96,-33.62,-47.83,-58.30,-66.06,-78.19,-78.62,-87.33,-86.97,-95.76,-94.62,-96.44,-94.01,-93.71,-94.15,-94.42,-97.55,-94.90,-90.91,-94.41,-92.24,-96.87,-92.49,-89.26,-87.00,-84.62,-89.51,-76.62,-80.42,-77.67,-76.22,-73.26,-62.79,-58.90,-54.05,-47.65,-40.50,-32.73,-27.94,-17.23,-11.21,-6.75,5.02,7.56,13.37,23.62,23.59,26.01,29.59,30.45,39.55,34.30,36.43,38.37,36.78,40.70,41.34,43.12,45.02,50.80,46.77,56.33,60.75,66.52,74.73,77.20,81.11,83.31,94.63,103.33,106.60,113.39,118.51,126.02,130.47,134.35,134.77,139.38,143.58,146.58,142.74,140.85,135.71,132.34,127.66,122.96,110.97,107.04,104.28,100.81,92.22,87.09,91.09,86.23,84.51,82.77,78.45,84.36,84.85,83.97,79.65,82.57,80.27,89.19,93.65,89.53,97.92,97.55,97.99,98.65,101.39,105.45,106.48,104.52,110.76,110.28,102.72,106.12,104.54,104.77,95.33,96.39,93.29,94.99,92.85,89.73,98.27,83.89,81.50,81.11,72.50,66.14,59.86,53.70,42.97,29.65,21.80,15.71,3.31,-2.89,-11.80,-24.06,-28.57,-37.88,-48.01,-53.82,-58.56,-66.89,-71.54,-81.12,-81.58,-95.32,-98.82,-109.66,-114.03,-124.32,-123.57,-139.82,-145.09,-149.45,-160.41,-161.58,-163.50,-177.93,-180.07,-184.71,-192.33,-195.13,-201.71,-198.60,-199.54,-200.47,-199.72,-198.58,-200.77,-199.79,-195.52,-189.45,-195.77,-192.24,-188.93,-186.64,-186.38,-180.81,-184.04,-178.86,-178.34,-186.22,-187.14,-189.18,-189.31,-196.43,-200.91,-200.05,-206.50,-207.81,-206.23,-207.18,-210.62,-206.82,-209.57,-208.17,-206.43,-203.09,-200.25,-200.01,-195.20,-194.81,-193.05,-190.55,-187.07,-186.75,-182.99,-181.65,-181.16,-178.68,-171.05,-167.91,-165.82,-160.22,-151.52,-141.16,-137.67,-127.65,-116.74,-105.52,-102.99,-89.05,-79.88,-72.81,-62.57,-60.65,-51.48,-51.56,-45.07,-43.17,-39.27,-36.13,-34.50,-35.91,-34.60,-35.15,-44.26,-44.71,-53.35,-55.70,-68.87,-74.55,-78.49,-87.24,-91.35,-98.95,-107.30,-112.83,-124.73,-124.72,-132.82,-132.87,-141.16,-141.27,-145.19,-150.31,-156.66,-159.98,-157.01,-160.25,-167.00,-169.34,-169.17,-162.89,-165.57,-166.93,-169.67,-164.83,-168.52,-174.59,-178.00,-171.98,-182.59,-190.13,-188.82,-196.11,-206.97,-222.13,-227.76,-234.62,-237.35,-247.67,-258.51,-260.60,-270.11,-278.57,-279.44,-282.34,-293.15,-297.45,-302.40,-306.12,-309.13,-313.06,-316.60,-322.44,-321.13,-332.16,-331.53,-333.27,-335.12,-334.68,-334.68,-337.29,-337.70,-338.12,-331.62,-333.65,-333.79,-328.76,-327.27,-321.99,-314.35,-308.14,-306.13,-301.81,-293.56,-285.80,-279.33,-269.21,-260.46,-258.54,-242.51,-232.03,-221.79,-214.84,-199.27,-195.67,-188.23,-177.45,-162.94,-150.65,-143.25,-125.69,-122.76,-117.58,-92.54,-89.59,-77.32,-61.93,-52.41,-40.26,-28.46,-17.18,0.01,10.27,27.80,39.81,51.66,67.24,82.84,94.42,109.53,119.82,124.05,135.20,139.20,137.45,134.22,133.80,125.84,115.30,110.87,103.99,91.77,81.39,76.47,70.56,65.91,62.47,52.76,50.96,49.04,46.37,41.30,44.02,47.87,41.39,42.29
24.40,10.32,2.76,-6.82,-15.54,-18.98,-30.23,-38.83,-44.44,-49.41,-56.22,-61.67,-69.40,-72.80,-86.68,-82.28,-89.33,-94.14,-94.38,-95.54,-91.02,-95.10,-92.99,-85.83,-75.63,-71.65,-51.20,-33.80,-19.08,-0.38,15.60,35.91,54.03,73.49,88.95,103.25,110.98,113.73,126.89,123.89,127.54,124.03,121.85,118.02,109.01,96.39,88.40,78.16,59.31,42.41,30.55,10.35,-2.58,-18.07,-26.07,-42.22,-54.41,-63.30,-76.09,-76.93,-80.39,-85.83,-90.37,-88.00,-91.04,-86.74,-93.49,-91.59,-91.58,-91.55,-87.38,-88.44,-87.01,-86.20,-83.11,-80.19,-84.78,-81.76,-78.73,-76.94,-73.37,-74.13,-69.79,-63.23,-62.24,-55.40,-52.19,-38.38,-36.44,-26.37,-21.98,-12.94,-6.15,2.66,9.19,12.49,17.84,25.06,31.12,27.99,29.16,28.73,33.62,32.72,32.73,33.79,34.66,35.18,37.90,40.71,43.60,45.43,49.76,51.83,57.37,66.97,68.11,73.15,83.90,90.16,95.69,103.89,104.35,116.34,121.08,127.22,136.11,141.55,141.34,148.19,151.07,148.05,147.17,145.31,138.42,133.11,136.65,123.97,114.13,113.68,108.99,97.84,97.28,96.95,93.56,88.99,85.33,89.13,82.28,89.56,85.61,81.91,83.59,83.67,86.18,87.00,90.85,90.79,92.72,94.70,99.97,103.15,99.51,106.51,108.89,104.86,106.08,105.64,106.68,102.67,105.44,94.99,98.83,96.72,94.16,95.17,92.41,90.98,89.19,90.01,87.67,75.44,69.71,65.69,57.40,52.85,43.13,36.39,25.25,17.81,9.13,-3.77,-15.06,-19.14,-28.03,-33.77,-40.98,-50.76,-54.86,-61.96,-73.35,-80.42,-83.37,-93.95,-95.53,-107.11,-111.50,-122.50,-129.41,-138.66,-142.76,-150.26,-158.32,-160.84,-162.89,-173.43,-177.07,-176.83,-183.84,-189.32,-194.12,-194.53,-197.06,-197.69,-197.14,-197.28,-199.11,-193.57,-192.56,-190.11,-185.88,-184.43,-179.69,-178.12,-176.51,-175.77,-177.00,-174.08,-174.61,-180.63,-180.99,-186.97,-191.96,-194.47,-198.40,-195.00,-201.98,-202.98,-202.11,-207.33,-206.87,-206.40,-206.12,-201.73,-197.10,-196.69,-201.44,-194.06,-190.10,-193.63,-192.96,-185.21,-185.83,-182.84,-181.34,-177.20,-175.08,-172.62,-167.44,-162.18,-158.04,-154.04,-145.36,-137.04,-129.31,-119.34,-110.31,-102.27,-94.48,-84.01,-81.49,-65.59,-57.40,-56.12,-51.48,-46.17,-40.61,-36.16,-34.43,-30.74,-31.46,-27.83,-32.15,-36.59,-43.89,-44.54,-49.80,-55.62,-65.50,-73.00,-86.11,-86.12,-94.10,-102.80,-110.45,-116.94,-123.23,-124.59,-134.16,-141.14,-139.90,-141.82,-147.56,-147.85,-149.72,-156.09,-154.51,-167.18,-166.08,-162.93,-164.70,-168.52,-167.62,-161.63,-163.90,-172.85,-168.57,-168.95,-168.40,-172.47,-175.02,-182.29,-188.76,-194.85,-205.52,-211.05,-216.08,-233.07,-234.91,-248.95,-248.26,-256.14,-260.27,-270.17,-274.58,-275.79,-280.05,-290.29,-293.11,-298.65,-297.79,-302.82,-305.71,-310.56,-319.09,-318.35,-319.37,-324.19,-328.09,-321.65,-327.08,-324.18,-322.07,-326.40,-324.21,-320.85,-321.25,-317.42,-312.73,-315.50,-302.43,-301.07,-296.00,-290.33,-280.03,-280.64,-268.67,-259.09,-250.93,-243.21,-237.43,-225.48,-215.42,-207.28,-199.30,-187.93,-177.40,-168.90,-154.59,-145.34,-130.82,-126.50,-113.14,-99.31,-93.21,-83.95,-68.12,-62.70,-45.16,-40.02,-22.31,-7.56,2.19,16.17,28.78,47.44,56.59,76.49,87.54,100.82,114.16,119.66,130.54,132.64,142.37,138.51,137.59,137.00,127.90,117.26,115.13,97.13,89.74,83.03,73.02,68.48,60.07,57.19,51.10,47.67,50.36,47.78,42.71,43.29,46.89,43.10,40.73
28.94,16.56,4.86,-1.22,-16.11,-26.49,-25.98,-37.48,-43.83,-49.50,-54.25,-63.22,-66.96,-72.15,-77.81,-85.53,-85.76,-88.83,-92.88,-96.27,-94.65,-93.23,-89.94,-83.15,-78.38,-68.41,-59.02,-46.31,-24.53,-6.60,11.69,25.52,43.65,58.42,72.64,89.78,105.16,110.80,122.96,124.22,125.12,127.14,127.77,123.99,117.38,103.55,97.32,86.92,74.08,60.07,45.36,28.97,11.84,-1.35,-15.26,-27.59,-35.35,-50.00,-60.55,-62.23,-76.35,-80.22,-79.14,-88.51,-87.10,-87.07,-88.19,-88.64,-85.80,-85.26,-86.10,-86.87,-83.26,-82.72,-79.78,-80.51,-78.74,-74.60,-71.54,-72.45,-74.06,-71.09,-61.86,-60.10,-56.72,-48.47,-39.56,-40.01,-30.08,-22.81,-20.74,-9.90,-2.17,5.83,10.53,14.73,18.72,22.83,26.07,28.91,33.35,34.46,33.76,27.71,35.31,31.11,27.50,30.76,35.14,35.54,36.26,41.67,46.15,50.42,54.50,59.47,66.59,74.09,82.35,91.35,95.90,102.30,109.02,116.22,122.57,131.25,131.67,143.93,145.40,147.12,150.05,149.32,155.95,145.99,143.50,136.00,134.83,123.58,123.22,115.96,110.78,106.75,100.66,99.65,94.34,91.23,88.63,91.92,90.97,92.42,85.79,84.92,84.52,82.27,87.49,87.98,87.69,93.33,89.76,91.39,98.15,100.71,98.94,94.22,102.91,102.78,110.36,108.36,103.60,103.53,103.77,100.60,98.22,99.01,97.89,96.41,92.47,90.52,88.14,83.67,81.46,75.17,68.33,66.86,63.70,51.64,46.01,34.07,29.61,17.87,13.05,-0.94,-3.68,-13.66,-25.95,-33.81,-41.15,-43.91,-58.01,-60.55,-72.69,-79.37,-86.91,-91.59,-99.79,-106.66,-113.50,-118.83,-127.45,-134.40,-133.05,-146.45,-156.42,-154.86,-163.61,-169.86,-174.77,-175.19,-179.59,-184.98,-185.56,-187.71,-188.90,-192.91,-188.77,-192.45,-189.03,-188.39,-185.18,-179.60,-179.63,-174.70,-173.92,-167.41,-169.18,-172.99,-171.68,-171.94,-172.56,-175.89,-180.85,-180.87,-189.71,-183.62,-191.55,-190.27,-199.23,-199.06,-197.68,-196.07,-199.56,-203.76,-199.84,-201.44,-194.69,-194.11,-190.93,-190.24,-188.86,-191.06,-186.70,-182.24,-184.11,-182.81,-175.49,-174.80,-169.06,-168.93,-163.65,-159.89,-153.28,-142.87,-137.96,-130.95,-128.24,-118.29,-108.69,-101.41,-89.99,-82.15,-79.62,-69.47,-66.13,-59.08,-49.90,-44.28,-47.82,-38.54,-33.20,-37.86,-32.38,-36.99,-32.96,-32.01,-38.45,-45.50,-48.16,-60.51,-62.64,-74.74,-84.94,-91.53,-99.46,-104.92,-113.47,-118.69,-126.52,-132.16,-135.28,-136.77,-141.01,-147.27,-151.17,-149.68,-149.69,-156.79,-156.57,-164.18,-160.78,-164.96,-163.92,-160.47,-164.38,-168.29,-168.82,-170.35,-166.16,-169.18,-173.16,-168.46,-174.82,-179.22,-188.37,-190.35,-200.70,-209.68,-214.09,-223.89,-226.52,-236.55,-248.85,-248.40,-248.75,-262.99,-269.67,-265.71,-276.88,-278.81,-286.53,-289.01,-291.67,-293.53,-299.95,-300.31,-306.03,-305.32,-309.07,-310.72,-313.36,-311.33,-312.10,-315.44,-315.56,-309.30,-311.87,-309.92,-306.11,-307.76,-300.30,-305.16,-291.77,-293.17,-285.00,-278.96,-275.75,-265.37,-258.50,-253.33,-247.64,-233.34,-227.44,-216.20,-215.78,-198.75,-191.81,-180.71,-168.19,-164.72,-151.29,-138.07,-132.61,-116.96,-110.02,-91.80,-84.11,-72.86,-66.28,-52.68,-42.41,-28.84,-16.40,-6.28,7.00,19.31,38.11,44.91,58.54,76.88,88.25,100.01,114.90,120.80,131.13,135.05,137.52,135.02,131.96,128.26,126.19,110.13,106.26,93.14,87.58,78.92,72.02,69.20,61.64,54.64,54.87,45.93,43.25,48.80,43.66,44.32,39.28,40.01,45.26
27.85,21.58,10.72,0.21,-5.77,-18.75,-25.96,-36.30,-39.79,-50.97,-53.70,-60.76,-63.88,-71.98,-73.65,-79.30,-80.14,-91.56,-92.54,-93.77,-92.70,-91.93,-89.47,-86.35,-80.85,-73.61,-59.74,-50.83,-33.35,-17.91,-5.32,16.99,39.84,55.02,68.47,81.51,89.83,104.49,117.56,117.69,119.77,128.38,124.54,122.01,121.59,116.95,107.19,99.30,89.12,74.29,60.82,44.09,34.71,16.47,1.93,-13.77,-27.49,-39.19,-48.35,-55.94,-62.41,-73.51,-70.27,-77.27,-75.28,-79.20,-80.37,-78.40,-77.27,-80.37,-75.84,-78.25,-77.74,-76.89,-78.46,-80.59,-74.33,-70.40,-68.28,-72.17,-63.91,-65.20,-56.76,-53.85,-53.56,-46.72,-43.04,-31.42,-26.61,-20.42,-13.57,-1.57,1.73,9.67,13.52,17.55,27.70,21.87,24.56,28.29,24.45,23.82,26.86,24.36,28.96,27.81,27.77,28.08,24.22,30.42,36.80,36.04,46.55,48.13,53.49,57.43,65.35,68.41,80.21,80.67,88.59,99.10,104.74,112.68,124.30,129.44,138.75,148.47,146.11,154.48,152.47,153.56,154.73,153.69,145.13,141.18,134.95,131.62,123.16,118.03,109.77,107.72,102.39,98.02,97.29,93.38,89.23,90.52,92.27,88.52,87.40,87.42,84.83,85.04,86.97,88.72,83.78,88.15,87.46,92.36,98.04,94.59,96.73,101.40,104.06,101.76,106.08,99.11,107.29,103.67,97.80,95.81,95.95,96.21,97.22,90.72,89.72,90.26,83.52,83.35,80.34,73.42,74.24,64.14,60.49,53.33,42.49,33.99,35.67,21.75,15.99,5.23,-4.73,-12.83,-18.13,-29.69,-38.33,-42.72,-55.60,-58.34,-63.99,-76.87,-78.01,-92.27,-98.10,-101.51,-103.24,-119.77,-122.75,-131.48,-134.60,-140.50,-150.67,-152.65,-156.75,-158.94,-168.83,-167.13,-177.29,-177.06,-183.77,-181.84,-190.69,-184.49,-180.33,-185.62,-180.72,-183.39,-175.04,-179.34,-173.81,-172.44,-166.19,-167.64,-165.32,-170.51,-163.32,-164.16,-167.58,-174.49,-173.80,-174.69,-183.81,-189.84,-184.38,-189.81,-188.47,-195.06,-197.00,-201.43,-190.79,-196.16,-197.03,-196.36,-187.17,-190.95,-186.96,-186.88,-182.73,-184.51,-182.46,-181.29,-175.76,-175.29,-169.97,-172.06,-170.88,-163.11,-159.83,-157.29,-153.30,-143.29,-143.18,-131.29,-120.51,-115.21,-110.25,-99.58,-92.23,-77.04,-71.14,-68.61,-62.19,-60.09,-54.90,-47.38,-42.22,-37.81,-37.79,-31.58,-35.11,-32.33,-31.34,-40.41,-41.37,-44.91,-51.90,-62.40,-71.19,-76.47,-90.14,-96.53,-102.41,-111.51,-118.12,-121.62,-131.10,-135.05,-136.94,-142.17,-144.04,-148.35,-150.20,-149.64,-155.49,-154.30,-156.06,-162.87,-159.82,-167.04,-169.85,-161.70,-164.43,-165.13,-163.48,-166.89,-164.69,-162.49,-161.47,-168.40,-168.98,-178.09,-179.10,-188.14,-194.67,-202.36,-212.13,-218.93,-222.77,-232.48,-235.01,-245.53,-250.31,-251.80,-255.68,-258.01,-267.13,-267.83,-274.81,-273.12,-283.36,-284.58,-289.45,-288.26,-291.07,-291.21,-293.60,-299.51,-303.18,-297.38,-300.76,-302.29,-304.36,-304.34,-300.75,-298.33,-295.09,-291.87,-291.74,-289.64,-279.72,-280.15,-279.19,-271.35,-267.04,-257.47,-245.11,-241.17,-233.57,-226.75,-214.89,-208.12,-199.45,-192.77,-187.30,-177.70,-164.94,-146.83,-144.62,-129.15,-120.35,-108.63,-99.32,-92.82,-75.77,-64.98,-55.78,-44.83,-34.84,-25.40,-11.41,-0.46,10.01,26.04,40.34,52.61,67.05,79.01,93.20,104.39,114.27,123.04,132.78,138.27,137.92,138.56,132.37,128.13,120.78,110.48,96.59,93.47,81.52,74.56,72.65,63.41,55.45,53.89,48.87,44.52,43.10,45.03,42.65,38.21,41.98,39.78,39.65
34.61,22.58,11.80,2.86,-10.15,-14.71,-22.51,-30.68,-35.58,-47.94,-50.27,-51.95,-58.52,-64.20,-70.54,-76.07,-79.78,-83.69,-84.93,-86.77,-93.65,-92.73,-91.50,-87.20,-81.29,-73.50,-63.82,-52.00,-40.62,-27.07,-13.27,3.79,20.43,39.99,55.20,69.23,83.51,93.70,103.01,108.56,118.08,119.64,126.32,123.32,123.37,119.22,108.18,100.92,97.60,84.91,75.56,59.71,42.77,24.30,16.76,4.14,-17.89,-24.93,-36.94,-51.57,-57.48,-60.08,-62.60,-69.97,-72.85,-75.03,-74.15,-77.22,-75.24,-71.24,-77.13,-73.09,-72.92,-72.13,-71.09,-68.95,-67.71,-67.17,-62.67,-62.84,-61.00,-58.60,-51.38,-52.91,-44.07,-38.32,-39.67,-29.54,-18.57,-9.09,-9.31,-3.02,3.65,12.57,16.20,20.43,24.92,28.97,21.13,27.80,28.65,26.44,22.99,25.98,21.12,22.47,19.21,22.50,27.57,29.22,30.68,38.80,38.79,40.03,47.06,52.40,56.53,65.05,72.62,82.48,91.39,93.53,106.46,114.68,125.39,128.93,136.83,144.35,149.22,153.49,156.03,152.65,149.24,145.97,147.51,136.46,135.84,122.40,123.66,116.68,114.35,107.79,104.72,102.70,97.03,98.24,96.36,98.90,95.67,94.28,91.83,92.42,85.63,91.35,86.76,85.55,88.68,90.94,97.14,86.42,91.36,94.68,94.54,104.01,100.28,99.67,97.87,99.86,103.10,99.20,101.35,99.51,97.26,95.78,94.08,89.66,86.97,84.89,79.17,83.07,73.05,68.73,73.75,67.11,58.79,56.69,44.87,41.35,29.96,23.83,14.13,1.56,-4.63,-12.27,-18.82,-27.37,-39.50,-44.82,-47.00,-58.24,-68.21,-69.36,-79.58,-83.89,-94.93,-102.21,-109.26,-113.47,-115.28,-127.83,-132.46,-133.76,-144.47,-152.67,-155.21,-159.09,-166.58,-168.94,-173.21,-168.88,-179.68,-179.69,-183.12,-181.75,-180.36,-177.44,-175.73,-177.06,-172.53,-176.01,-167.47,-166.53,-163.01,-157.64,-159.49,-156.35,-162.91,-158.79,-156.90,-164.75,-169.75,-168.75,-172.68,-176.89,-186.71,-186.36,-189.21,-189.72,-193.42,-189.82,-190.71,-186.23,-189.19,-191.79,-190.11,-184.16,-190.82,-187.08,-181.28,-179.25,-179.68,-178.66,-177.33,-175.80,-172.25,-164.40,-171.86,-164.58,-153.53,-150.61,-151.05,-142.24,-133.44,-126.08,-124.09,-116.15,-109.52,-100.26,-91.15,-82.01,-81.72,-69.09,-64.85,-59.92,-47.60,-44.16,-48.12,-34.98,-35.67,-36.37,-28.28,-27.87,-32.12,-33.98,-39.14,-45.59,-48.44,-61.41,-66.34,-77.56,-91.30,-97.46,-105.51,-114.30,-120.79,-123.75,-128.21,-133.00,-137.75,-142.21,-144.89,-145.79,-146.94,-146.79,-152.00,-153.28,-160.84,-163.02,-161.78,-159.93,-163.42,-168.07,-163.03,-158.06,-158.96,-165.23,-161.54,-162.87,-163.64,-163.88,-168.67,-168.63,-180.57,-180.90,-186.54,-196.46,-202.02,-203.70,-216.03,-220.44,-225.95,-236.68,-232.88,-244.57,-248.93,-251.08,-256.28,-261.27,-262.32,-270.56,-266.73,-272.59,-274.85,-279.84,-282.73,-286.62,-283.64,-291.25,-288.07,-290.95,-289.81,-292.95,-287.41,-292.49,-296.09,-288.25,-287.64,-283.54,-282.00,-275.86,-275.93,-268.14,-264.09,-260.46,-255.31,-242.92,-242.99,-234.81,-222.72,-217.62,-209.33,-203.63,-193.26,-178.54,-171.58,-167.31,-155.72,-151.30,-132.84,-126.95,-112.78,-103.59,-94.15,-83.35,-72.96,-64.82,-49.36,-40.77,-27.03,-23.06,-5.21,2.89,15.61,32.30,46.01,60.79,70.78,83.86,100.89,110.99,120.12,122.52,132.58,135.41,136.27,132.75,129.26,127.49,118.24,108.21,98.71,86.17,81.38,73.56,65.24,56.12,58.00,50.10,48.40,47.01,39.44,45.66,37.71,39.85,43.41,36.43,38.52
34.64,29.90,15.78,8.96,-1.34,-13.71,-23.20,-30.50,-37.40,-39.66,-46.66,-53.67,-61.10,-66.64,-72.63,-74.00,-78.38,-77.21,-82.03,-85.67,-84.99,-84.29,-87.13,-84.93,-84.12,-71.52,-65.12,-59.57,-44.67,-40.27,-21.59,-5.29,10.92,28.26,39.43,58.06,72.83,83.23,94.20,102.17,111.79,114.36,122.91,125.64,124.53,121.96,118.64,113.02,105.80,90.83,82.04,66.82,55.68,45.14,28.51,12.58,-2.15,-14.60,-26.80,-35.02,-47.22,-53.52,-60.10,-65.98,-70.17,-68.64,-73.05,-70.58,-67.89,-69.99,-69.66,-71.99,-68.69,-68.04,-65.99,-62.93,-60.03,-65.86,-54.99,-58.87,-48.50,-51.65,-46.08,-42.55,-39.26,-30.84,-24.40,-22.08,-17.49,-11.91,0.27,0.29,9.39,15.24,16.13,22.53,22.82,23.45,20.69,22.24,20.75,23.06,20.43,16.44,13.39,18.79,19.67,20.48,20.14,18.89,22.48,21.72,31.63,37.34,38.57,44.39,46.28,60.83,70.08,75.07,82.08,90.64,100.71,113.15,118.98,125.96,141.26,139.55,144.83,148.74,152.73,151.34,148.99,146.86,139.74,138.21,133.93,124.59,121.49,115.57,113.27,108.20,107.84,109.10,102.83,101.61,96.89,95.27,96.09,91.60,96.04,94.21,90.02,92.11,95.45,90.05,91.09,90.06,90.46,90.18,96.51,87.39,94.75,94.56,99.16,100.24,100.38,96.80,102.49,97.70,100.84,97.35,95.37,91.83,85.37,92.97,86.64,82.08,81.74,76.71,72.50,69.68,66.32,61.75,58.64,55.46,47.09,38.86,26.21,25.14,14.13,8.27,0.43,-9.75,-19.12,-24.19,-35.83,-34.80,-47.87,-53.97,-62.96,-71.91,-72.17,-87.02,-91.11,-98.57,-105.75,-113.07,-118.61,-122.66,-129.33,-134.73,-141.97,-144.20,-155.03,-156.05,-160.39,-164.06,-167.26,-169.73,-169.94,-174.22,-175.12,-171.37,-171.77,-173.18,-171.44,-173.70,-168.08,-163.24,-160.39,-161.82,-159.89,-152.55,-150.15,-150.19,-147.19,-149.92,-157.15,-154.68,-163.32,-164.08,-171.99,-169.91,-177.18,-173.28,-180.77,-183.65,-187.15,-184.65,-185.21,-187.49,-181.40,-186.31,-187.27,-182.85,-181.31,-180.76,-177.25,-177.26,-172.81,-171.99,-171.51,-169.57,-173.15,-164.63,-161.64,-155.88,-157.13,-152.75,-146.72,-140.12,-136.70,-131.25,-122.84,-118.24,-112.28,-102.75,-94.04,-88.06,-78.91,-78.09,-65.59,-62.32,-51.82,-49.76,-45.08,-40.88,-35.79,-30.95,-29.77,-30.84,-33.14,-35.15,-34.67,-44.43,-50.71,-60.16,-69.72,-86.44,-91.85,-98.14,-106.36,-113.33,-119.05,-129.48,-130.54,-134.73,-137.19,-144.32,-143.55,-150.81,-151.76,-144.99,-151.90,-156.05,-159.64,-157.16,-153.70,-159.00,-158.20,-161.75,-161.83,-159.22,-159.42,-158.80,-157.58,-156.60,-164.35,-162.17,-161.86,-168.71,-167.94,-175.15,-184.78,-190.47,-196.36,-203.98,-209.46,-216.64,-220.32,-223.94,-228.65,-234.14,-243.76,-242.29,-247.85,-249.84,-255.44,-258.85,-260.25,-259.66,-272.97,-265.62,-266.61,-276.36,-274.11,-276.80,-277.64,-277.50,-277.05,-278.74,-281.49,-279.78,-276.24,-274.29,-273.61,-273.10,-269.02,-263.31,-263.97,-255.89,-255.73,-248.35,-237.60,-237.04,-224.25,-221.92,-210.88,-213.20,-196.09,-192.12,-183.75,-176.66,-165.98,-155.23,-148.91,-138.87,-125.77,-116.55,-112.22,-94.47,-84.01,-79.12,-68.04,-58.13,-41.38,-36.46,-22.99,-10.34,-0.12,9.79,24.63,30.90,49.84,61.50,75.08,89.48,104.60,115.24,121.45,130.15,132.08,135.66,136.74,133.38,128.60,121.18,111.00,101.58,93.08,85.52,76.87,69.77,62.12,56.36,49.95,48.68,48.27,40.35,42.36,42.89,37.28,39.44,37.81,35.75,38.11
39.00,28.71,18.87,11.53,-0.16,-7.46,-16.22,-27.63,-35.82,-42.29,-53.40,-48.15,-57.05,-58.14,-61.96,-68.00,-74.13,-76.01,-79.53,-79.77,-79.42,-81.70,-80.28,-83.48,-79.35,-74.98,-65.66,-61.50,-52.19,-42.71,-28.37,-14.66,-0.06,15.69,28.28,46.89,55.60,77.15,79.65,91.84,107.18,111.29,119.52,123.75,129.53,127.33,118.96,111.18,111.77,104.18,92.70,80.34,67.38,51.84,36.09,23.54,10.12,6.87,-13.52,-25.97,-34.42,-41.14,-49.77,-54.75,-55.96,-55.67,-64.32,-68.50,-66.76,-65.82,-63.35,-63.28,-56.80,-60.59,-57.85,-60.91,-57.49,-59.99,-49.34,-45.16,-48.23,-41.80,-35.50,-32.46,-30.48,-25.00,-21.69,-18.38,-5.46,-1.93,2.76,0.55,8.06,17.44,15.64,21.14,21.54,19.57,20.56,25.44,19.12,16.56,18.53,11.75,10.83,7.29,15.32,13.35,9.15,12.32,19.58,25.69,23.65,27.59,29.94,38.00,48.41,53.16,63.92,67.26,81.61,85.07,100.20,106.58,117.84,127.55,129.44,138.16,146.52,147.31,149.69,149.73,143.49,141.43,140.12,135.37,134.55,122.19,118.97,112.62,110.83,112.95,107.36,103.73,99.66,97.74,101.84,99.44,93.33,98.70,92.37,97.39,89.61,91.38,93.34,89.05,89.81,89.40,88.26,92.97,92.37,84.49,94.74,91.16,98.59,92.59,93.76,95.49,98.73,95.40,96.10,95.61,91.58,95.91,87.95,84.15,83.47,84.06,77.42,76.21,71.38,71.03,57.79,62.54,56.53,55.61,46.44,38.32,34.43,25.55,17.37,12.33,2.96,-6.38,-10.01,-25.32,-30.03,-35.63,-52.24,-59.36,-63.45,-64.05,-71.81,-79.25,-86.79,-94.86,-99.14,-109.10,-116.43,-116.22,-126.99,-130.76,-133.74,-143.33,-145.30,-152.61,-154.87,-154.81,-161.16,-163.69,-167.68,-164.53,-164.41,-167.81,-169.77,-170.13,-167.70,-166.28,-159.66,-163.64,-155.72,-153.74,-147.21,-146.75,-148.64,-146.33,-143.95,-147.22,-155.22,-152.23,-159.93,-159.47,-159.31,-165.97,-169.78,-175.26,-175.76,-178.85,-177.03,-180.49,-179.23,-180.44,-179.62,-180.13,-179.46,-177.73,-178.32,-172.39,-179.41,-172.06,-169.02,-173.07,-171.21,-171.25,-164.17,-162.39,-164.13,-161.41,-154.60,-147.72,-143.05,-139.36,-132.95,-127.97,-123.45,-115.70,-111.91,-100.80,-98.34,-91.78,-88.73,-78.81,-70.87,-68.65,-55.53,-55.00,-46.57,-39.59,-42.16,-37.51,-32.12,-30.87,-39.96,-35.93,-42.74,-46.61,-54.26,-60.25,-73.06,-76.21,-87.80,-99.55,-108.71,-112.15,-120.38,-123.72,-129.87,-140.51,-138.65,-140.18,-147.01,-142.06,-147.21,-151.24,-151.06,-152.10,-151.64,-151.44,-158.98,-154.47,-159.23,-155.88,-160.25,-153.51,-153.55,-153.13,-152.56,-155.05,-154.28,-156.96,-153.78,-157.15,-167.60,-164.87,-173.25,-176.93,-191.00,-196.71,-196.29,-209.34,-211.21,-213.72,-218.15,-223.19,-226.46,-235.96,-237.49,-236.98,-242.22,-247.49,-245.65,-251.82,-253.03,-254.86,-256.96,-256.87,-259.05,-264.63,-263.20,-264.24,-267.89,-262.39,-258.41,-259.25,-259.86,-264.71,-258.73,-252.39,-249.41,-248.65,-246.91,-242.48,-236.78,-238.16,-229.26,-227.08,-221.07,-214.14,-202.66,-198.57,-189.13,-181.06,-176.81,-168.51,-158.86,-147.11,-134.73,-135.22,-115.26,-106.04,-101.13,-88.77,-78.02,-68.35,-58.82,-46.06,-40.68,-26.23,-17.68,-9.16,2.99,9.37,31.45,39.53,52.68,65.05,84.12,92.07,106.12,111.11,130.22,129.14,130.42,137.40,133.70,131.40,128.26,114.71,107.18,98.18,86.72,81.66,69.23,66.30,59.48,51.89,47.12,43.71,45.21,44.97,38.45,36.45,37.33,36.75,36.80,36.31,37.27
36.97,33.42,24.40,15.13,3.25,-0.66,-13.93,-25.93,-30.73,-37.91,-47.54,-52.31,-50.24,-59.25,-57.29,-66.60,-66.86,-69.57,-73.55,-78.35,-75.38,-82.05,-79.21,-75.42,-75.33,-75.09,-71.23,-60.89,-52.17,-49.24,-35.76,-22.77,-11.61,2.74,19.18,30.20,47.68,60.31,74.82,90.52,100.77,106.09,115.11,123.67,121.82,123.81,127.25,120.97,112.90,110.74,101.04,92.55,79.78,67.45,50.70,40.39,29.48,8.41,-3.89,-11.45,-23.89,-34.91,-42.56,-38.62,-54.13,-56.09,-54.15,-59.18,-56.89,-60.48,-57.26,-56.69,-56.74,-53.14,-53.78,-49.10,-51.22,-45.71,-42.98,-40.47,-36.18,-39.84,-35.51,-32.28,-22.88,-21.54,-15.12,-6.96,-1.31,-4.05,6.78,9.72,15.38,17.89,19.19,24.92,21.71,18.64,17.81,12.09,10.06,10.93,10.90,11.17,4.52,7.85,10.84,10.59,10.42,7.26,11.80,18.61,21.71,26.06,31.64,34.16,40.17,58.65,56.78,67.94,73.72,84.21,92.63,103.90,109.90,124.88,139.13,138.07,138.16,144.07,151.35,143.66,145.76,144.10,137.73,126.68,124.47,123.06,113.40,112.69,105.94,107.48,104.15,103.35,99.74,98.46,94.51,97.94,98.00,99.53,92.84,100.60,93.57,93.13,94.35,91.08,92.31,88.21,87.62,88.16,87.35,89.62,92.39,84.22,93.68,92.52,96.15,93.95,95.04,90.44,96.10,89.13,90.07,93.52,88.07,82.46,80.84,79.94,78.45,69.99,71.75,66.27,60.54,61.42,53.59,47.93,45.68,40.14,32.88,23.25,23.37,13.73,5.34,-6.45,-13.28,-23.54,-28.68,-38.74,-44.85,-44.59,-51.38,-65.29,-73.55,-77.06,-86.86,-89.79,-98.68,-102.20,-108.37,-119.35,-124.09,-127.83,-129.39,-134.23,-143.00,-147.52,-149.22,-153.43,-155.72,-158.93,-166.96,-161.86,-163.10,-163.22,-161.40,-164.87,-158.32,-159.15,-159.25,-150.54,-147.93,-150.71,-147.41,-144.65,-144.02,-140.87,-138.03,-139.19,-144.03,-149.84,-148.16,-151.11,-157.95,-162.61,-163.37,-168.72,-174.14,-174.17,-174.37,-170.30,-175.89,-175.53,-173.28,-172.92,-176.53,-173.28,-168.53,-170.59,-169.37,-168.89,-172.17,-166.11,-169.59,-167.63,-165.45,-158.87,-155.50,-159.89,-151.27,-154.23,-141.65,-141.17,-132.91,-127.26,-126.64,-115.77,-114.27,-111.71,-100.12,-93.58,-85.61,-84.71,-80.29,-69.26,-62.09,-57.60,-51.25,-44.71,-44.50,-38.08,-32.64,-30.59,-38.22,-37.55,-37.66,-45.74,-53.65,-65.74,-67.75,-81.73,-90.77,-96.14,-106.33,-111.84,-117.19,-122.89,-130.29,-128.29,-126.86,-138.03,-137.28,-140.92,-144.33,-144.74,-148.11,-149.86,-151.06,-149.66,-149.41,-151.86,-152.71,-150.71,-155.32,-154.06,-151.33,-152.29,-146.87,-152.60,-151.45,-152.21,-152.00,-156.94,-162.83,-162.16,-168.52,-175.15,-178.16,-181.55,-189.38,-196.39,-199.62,-209.15,-209.95,-214.02,-219.50,-217.32,-225.99,-226.43,-230.93,-236.37,-238.97,-239.31,-239.24,-246.30,-246.79,-246.60,-246.78,-247.42,-249.16,-250.50,-252.43,-248.69,-248.60,-244.99,-246.96,-245.99,-246.33,-241.36,-239.98,-235.90,-230.94,-226.47,-224.01,-217.25,-216.22,-202.59,-205.54,-199.11,-198.49,-188.59,-178.27,-170.78,-162.81,-153.50,-144.59,-136.83,-129.61,-121.72,-109.84,-101.94,-86.68,-79.97,-71.54,-63.62,-49.54,-40.24,-30.18,-21.99,-14.86,1.54,12.45,21.27,37.19,49.38,64.02,75.28,86.91,101.65,111.01,121.72,123.96,134.38,135.46,137.50,133.52,128.75,121.26,109.69,104.74,95.74,85.22,78.17,67.83,59.31,54.95,53.05,45.29,45.34,41.93,39.06,40.41,36.73,37.53,39.38,40.14,33.99,37.39
43.58,38.39,29.80,18.75,9.38,-4.76,-11.61,-17.70,-26.04,-33.67,-42.98,-44.83,-55.39,-54.79,-59.11,-64.96,-65.26,-70.98,-71.33,-76.66,-70.65,-81.50,-75.17,-80.80,-75.32,-71.76,-69.89,-65.94,-62.25,-53.89,-42.27,-35.05,-17.62,-7.52,10.82,16.57,27.38,48.45,60.43,77.74,89.61,102.46,109.74,111.96,120.81,125.98,126.99,122.98,119.01,118.59,106.10,100.19,90.67,78.82,65.48,51.22,35.69,24.56,9.25,0.71,-15.67,-21.73,-31.14,-40.04,-42.61,-48.91,-48.16,-48.01,-46.73,-50.78,-54.18,-49.52,-45.43,-51.48,-47.52,-44.31,-46.18,-41.73,-34.01,-33.03,-34.66,-26.45,-24.08,-16.32,-16.19,-14.12,-10.34,-1.61,1.98,7.71,8.73,15.66,19.60,18.99,21.88,20.13,19.06,15.64,17.75,10.71,10.09,4.54,6.77,2.38,2.92,-2.10,-1.21,0.03,4.00,5.70,7.24,9.29,11.50,20.61,21.35,30.46,31.94,42.90,53.71,60.30,68.80,81.09,87.24,97.41,110.10,117.65,125.22,130.64,136.50,144.53,145.71,149.36,143.29,137.70,134.37,124.11,122.76,115.98,117.44,111.11,107.35,100.68,110.02,100.30,98.87,102.59,96.54,97.84,98.01,100.25,99.69,96.58,96.45,88.26,94.19,93.54,94.53,90.50,91.18,87.89,93.03,87.70,87.56,85.32,90.37,89.66,92.18,88.63,90.58,93.91,94.83,91.88,89.41,83.16,83.04,76.10,80.16,75.52,74.66,69.48,65.11,62.88,64.70,60.69,53.53,53.28,47.35,38.25,31.99,25.02,20.03,15.38,4.66,-4.03,-5.55,-15.91,-25.13,-38.15,-38.34,-50.96,-54.79,-60.51,-66.83,-78.98,-80.71,-89.69,-95.36,-105.55,-112.54,-109.51,-115.60,-129.78,-127.76,-135.63,-136.22,-146.56,-146.71,-148.15,-156.49,-157.56,-156.65,-160.03,-157.63,-157.83,-155.43,-153.96,-154.97,-149.18,-151.72,-148.18,-148.98,-140.27,-133.68,-134.87,-135.80,-138.07,-137.57,-135.19,-137.10,-137.41,-138.83,-144.82,-150.86,-151.55,-155.12,-156.69,-164.13,-162.54,-163.82,-166.89,-170.34,-167.16,-169.27,-165.07,-167.52,-166.99,-167.83,-167.41,-162.27,-164.85,-169.39,-165.44,-167.99,-159.04,-158.34,-155.38,-161.53,-156.95,-152.94,-149.70,-145.65,-141.22,-135.34,-129.07,-124.03,-118.05,-114.76,-109.42,-101.37,-96.52,-91.37,-90.13,-74.70,-75.80,-66.38,-63.65,-46.90,-47.57,-41.22,-42.25,-35.32,-32.40,-38.28,-38.64,-41.79,-50.97,-52.68,-64.51,-70.10,-79.28,-84.48,-95.08,-108.93,-110.06,-116.12,-120.65,-127.65,-133.75,-136.84,-136.00,-133.41,-139.29,-140.91,-141.40,-140.95,-145.42,-143.55,-143.93,-145.62,-145.22,-143.50,-148.40,-149.05,-150.71,-145.57,-145.75,-142.88,-145.05,-147.30,-145.71,-151.64,-149.78,-154.33,-153.41,-157.57,-165.63,-175.37,-178.43,-180.72,-187.81,-191.02,-190.59,-200.08,-202.70,-205.72,-212.19,-214.52,-216.39,-217.99,-218.46,-225.59,-224.77,-234.02,-228.40,-228.85,-230.63,-227.21,-234.74,-234.72,-234.88,-233.27,-230.02,-231.31,-234.46,-235.94,-228.06,-227.86,-224.08,-226.49,-221.71,-218.78,-210.71,-213.63,-207.47,-198.68,-199.28,-188.51,-185.12,-184.59,-169.13,-170.34,-157.14,-148.83,-142.94,-133.26,-131.12,-120.53,-106.53,-96.64,-85.60,-82.78,-71.83,-59.94,-53.35,-48.22,-31.32,-23.78,-12.41,-1.10,9.22,19.61,30.76,43.85,52.19,66.76,78.54,92.38,103.85,110.43,121.85,132.74,133.37,136.09,139.95,132.07,129.39,118.63,108.19,98.91,91.29,81.50,75.47,70.74,60.44,52.82,49.23,45.63,42.10,38.31,36.51,37.49,33.42,34.94,38.81,31.33,33.07,33.24
47.67,35.72,29.03,28.48,9.93,3.63,-3.33,-10.81,-22.63,-27.78,-36.33,-43.47,-46.46,-52.22,-50.74,-53.10,-60.04,-65.41,-68.16,-64.55,-71.47,-75.02,-69.58,-71.22,-75.10,-71.55,-67.21,-64.74,-62.81,-58.47,-50.97,-39.87,-28.29,-17.64,-8.83,9.34,18.64,41.12,56.26,65.89,77.89,92.81,100.53,107.88,112.67,124.73,125.82,122.41,123.12,116.93,111.54,103.46,97.40,83.76,71.12,58.21,44.38,35.56,18.95,13.89,1.05,-16.26,-18.65,-26.57,-34.97,-31.33,-35.17,-36.10,-39.53,-37.89,-39.64,-38.08,-38.24,-36.91,-36.05,-37.38,-38.67,-30.51,-30.57,-29.72,-23.90,-20.79,-15.24,-10.57,-7.75,-5.37,-5.59,2.57,7.71,15.66,10.69,11.19,19.31,18.66,16.25,19.16,12.43,19.02,12.73,9.57,4.87,2.35,-1.87,-1.65,-3.04,-1.04,-4.31,-2.68,-4.71,2.54,3.08,6.93,11.28,14.86,17.31,26.98,31.34,37.13,46.99,55.22,62.42,76.23,86.70,88.74,102.01,110.91,119.10,132.60,132.80,140.50,140.28,139.03,134.39,129.84,125.02,123.21,117.17,104.15,110.53,103.04,101.46,101.41,95.67,94.61,96.33,101.92,99.48,102.63,94.00,99.71,96.95,101.95,97.40,94.67,95.13,90.16,92.90,88.24,86.79,88.15,81.59,85.15,84.03,88.47,86.86,83.33,83.52,87.04,86.30,89.73,86.66,86.00,86.02,86.72,81.05,80.37,75.71,71.18,71.86,65.67,61.38,60.35,59.80,54.99,55.00,50.28,49.63,38.73,35.35,31.88,18.10,18.74,4.16,4.43,-5.75,-14.66,-24.61,-32.91,-38.08,-45.96,-53.98,-60.54,-64.53,-69.41,-81.22,-86.57,-95.77,-100.01,-106.69,-108.66,-118.21,-119.94,-128.10,-125.73,-132.42,-137.88,-138.85,-142.26,-145.32,-151.55,-147.39,-148.38,-152.65,-149.71,-155.61,-153.52,-147.28,-142.33,-141.04,-139.11,-135.54,-132.60,-131.98,-126.15,-124.91,-121.22,-124.22,-121.27,-130.22,-128.77,-130.45,-141.83,-145.11,-145.25,-147.68,-146.99,-155.72,-161.62,-157.24,-158.89,-158.63,-162.48,-165.10,-156.39,-159.44,-156.76,-164.55,-161.24,-159.70,-159.21,-158.11,-163.70,-160.93,-157.94,-157.99,-162.05,-152.99,-150.93,-150.37,-145.56,-147.87,-134.90,-135.35,-133.53,-123.29,-127.56,-120.28,-110.86,-111.06,-104.33,-96.18,-88.03,-82.38,-74.33,-67.52,-60.87,-54.56,-48.81,-44.29,-45.07,-33.21,-40.04,-39.10,-36.83,-38.69,-45.58,-52.84,-60.47,-69.66,-75.18,-81.97,-89.92,-97.05,-107.83,-112.48,-122.41,-118.89,-126.10,-133.37,-130.78,-130.61,-135.34,-135.39,-139.16,-141.35,-139.08,-143.27,-141.90,-145.86,-143.54,-141.48,-146.54,-143.90,-144.15,-138.59,-140.29,-139.70,-139.50,-140.57,-143.65,-141.70,-140.62,-147.03,-147.57,-156.44,-153.46,-157.31,-164.63,-170.24,-177.23,-184.32,-182.11,-184.40,-191.37,-193.78,-199.89,-199.33,-200.39,-203.87,-209.61,-210.69,-209.40,-214.17,-209.65,-209.60,-217.16,-210.62,-218.14,-215.95,-218.40,-219.07,-222.36,-218.96,-213.21,-215.01,-214.62,-212.80,-208.78,-207.49,-203.23,-201.29,-197.78,-195.80,-184.57,-187.15,-179.15,-176.12,-171.18,-165.48,-160.23,-151.81,-144.19,-137.74,-136.74,-122.07,-114.93,-109.80,-97.90,-88.16,-82.40,-74.08,-58.99,-49.04,-42.06,-31.57,-24.74,-12.75,-10.92,6.47,17.03,28.11,39.09,51.14,61.03,79.97,91.37,105.03,108.58,121.33,129.13,127.29,135.23,136.41,134.19,126.66,124.71,114.81,103.68,96.78,83.27,77.39,67.82,60.73,52.66,46.39,42.03,38.52,39.35,38.24,36.70,32.98,30.94,34.48,33.97,35.42,29.56,31.99
50.28,45.75,31.82,25.80,13.23,4.47,-2.24,-8.93,-18.30,-24.23,-31.48,-33.99,-40.63,-46.53,-47.45,-52.86,-54.31,-55.96,-56.74,-58.33,-59.82,-63.82,-67.94,-67.88,-70.95,-70.36,-68.00,-65.03,-65.43,-58.57,-57.75,-47.67,-36.19,-28.19,-12.67,-1.35,6.42,26.64,40.87,58.82,66.54,85.30,98.14,108.07,111.98,120.42,122.86,128.18,125.23,121.08,116.81,107.39,100.82,92.76,84.24,67.41,60.17,45.25,31.80,21.61,13.80,5.15,-3.02,-11.58,-17.46,-20.87,-28.96,-27.07,-28.25,-33.42,-28.61,-34.39,-29.60,-32.67,-27.18,-27.61,-26.64,-21.33,-24.75,-16.44,-13.74,-11.76,-7.43,-8.72,-1.16,2.55,10.61,7.95,8.09,15.63,16.90,17.03,14.90,15.71,15.33,14.34,7.16,12.21,9.27,-0.65,-4.58,-6.58,-4.82,-8.60,-9.55,-5.28,-8.69,-5.73,-4.68,-3.97,-5.15,1.02,3.14,9.63,15.94,16.22,25.12,34.90,44.32,45.07,57.94,69.52,79.37,88.45,96.04,109.61,115.18,124.94,132.65,136.07,135.52,138.38,134.81,123.77,121.68,119.62,113.01,109.16,102.39,92.67,99.78,96.43,92.94,94.46,96.86,93.44,102.02,98.16,97.25,104.80,97.44,98.55,99.94,98.63,96.91,96.21,93.10,89.75,96.19,93.01,85.16,82.86,85.22,83.35,75.86,80.54,76.52,80.63,84.02,83.07,76.98,80.67,81.46,81.73,77.43,75.91,71.14,68.43,65.88,64.38,57.50,55.54,56.88,52.58,47.30,46.54,40.94,39.37,34.20,28.15,20.21,14.79,8.50,0.45,-3.69,-10.60,-16.03,-26.59,-33.71,-43.27,-49.27,-54.94,-63.23,-64.40,-78.81,-87.33,-91.46,-91.49,-97.58,-107.43,-111.67,-114.14,-118.46,-131.32,-128.91,-129.57,-135.42,-143.95,-136.09,-141.59,-148.21,-146.67,-143.60,-146.04,-140.65,-140.33,-139.36,-140.18,-134.38,-126.79,-127.33,-124.08,-126.61,-121.86,-119.24,-118.40,-116.24,-122.67,-121.12,-124.07,-124.11,-130.44,-136.01,-143.41,-141.75,-144.15,-146.93,-145.42,-148.47,-152.66,-153.70,-152.55,-156.28,-154.67,-154.64,-156.95,-156.22,-158.24,-150.21,-152.64,-157.76,-159.46,-163.99,-159.46,-152.46,-153.80,-151.06,-148.27,-148.49,-142.03,-140.92,-139.85,-136.67,-130.53,-128.00,-130.07,-119.23,-117.07,-113.73,-109.12,-101.10,-93.62,-88.51,-77.87,-74.09,-69.97,-56.99,-49.89,-44.10,-39.59,-44.16,-38.44,-37.08,-40.92,-44.26,-47.14,-50.88,-59.77,-65.89,-75.51,-83.10,-92.11,-99.82,-100.29,-107.88,-113.03,-115.31,-116.24,-123.73,-129.54,-128.49,-128.25,-136.26,-130.24,-136.68,-131.89,-136.73,-139.55,-136.40,-139.91,-144.13,-138.74,-133.39,-138.70,-140.08,-137.45,-135.37,-129.52,-137.49,-134.28,-137.78,-134.96,-135.71,-140.15,-144.04,-151.02,-153.03,-155.81,-156.46,-166.99,-169.68,-170.90,-171.92,-180.16,-176.08,-186.15,-190.03,-190.55,-193.95,-193.40,-193.45,-195.17,-196.49,-200.55,-200.49,-205.50,-205.01,-200.57,-203.97,-203.81,-202.74,-208.71,-202.00,-202.97,-198.57,-199.17,-199.31,-195.14,-194.83,-185.43,-184.42,-179.00,-175.67,-175.72,-169.11,-164.16,-158.67,-153.81,-151.58,-143.52,-138.52,-135.59,-128.51,-118.66,-113.23,-105.66,-99.20,-86.57,-77.31,-73.35,-60.83,-52.18,-45.90,-36.71,-24.28,-20.89,-12.28,6.05,13.25,24.83,40.97,46.92,59.37,69.92,81.51,91.52,107.04,115.83,121.53,132.70,133.05,136.14,136.28,132.00,125.32,115.01,110.21,102.58,87.48,77.44,75.49,61.23,55.26,49.94,47.90,38.42,38.26,33.79,40.12,32.16,30.27,30.21,31.00,31.45,32.57,28.62,28.63
53.26,44.00,36.21,31.92,22.01,11.45,3.50,-10.53,-14.11,-23.47,-27.59,-36.65,-36.08,-44.29,-38.46,-48.23,-51.98,-53.63,-59.78,-57.94,-57.44,-60.46,-64.66,-61.40,-67.65,-67.87,-69.22,-69.69,-62.32,-63.70,-57.28,-53.41,-41.80,-33.31,-28.69,-12.11,0.80,17.54,30.84,47.99,62.06,75.24,88.96,96.64,106.13,117.79,121.90,124.16,124.31,117.69,120.17,113.73,110.59,99.10,83.72,82.04,69.27,58.44,47.97,40.61,32.86,18.34,7.87,-2.87,1.82,-2.21,-15.03,-14.14,-16.89,-23.02,-19.08,-18.91,-21.28,-19.78,-18.12,-18.20,-17.19,-15.18,-10.45,-7.93,-3.77,-2.31,2.32,7.36,3.59,11.04,13.83,13.45,19.32,18.37,18.97,15.01,18.46,17.06,16.95,14.01,7.53,5.68,2.80,-4.68,-8.65,-11.45,-11.47,-14.85,-15.84,-17.66,-10.97,-12.90,-13.78,-6.04,-4.94,-8.10,-0.17,6.42,5.46,11.29,19.82,29.44,38.46,44.02,51.70,63.99,71.94,86.34,94.08,101.55,115.13,118.50,122.10,129.07,125.57,124.69,122.24,123.68,114.93,111.55,107.56,99.82,96.71,95.12,91.98,90.35,91.32,90.56,91.01,93.21,94.51,99.29,94.45,101.39,106.01,100.83,99.96,97.41,94.14,95.65,94.48,87.81,88.15,85.39,88.20,84.79,81.36,81.23,79.00,82.59,78.96,77.74,75.91,80.09,70.39,73.62,80.09,69.68,71.15,72.68,69.69,65.66,62.33,58.56,59.24,54.32,47.19,47.38,49.14,48.34,41.54,36.03,34.53,28.57,25.74,22.89,10.74,11.85,-3.43,-12.76,-15.75,-27.17,-31.43,-40.88,-45.31,-51.52,-59.84,-65.49,-72.96,-82.28,-86.99,-93.93,-97.58,-102.95,-106.76,-115.41,-116.87,-122.99,-124.58,-128.90,-129.15,-134.40,-142.92,-136.93,-142.44,-137.53,-140.45,-138.85,-134.24,-135.30,-133.67,-130.27,-131.19,-122.11,-123.12,-118.85,-116.63,-117.20,-117.03,-111.85,-109.06,-111.07,-111.28,-111.97,-120.24,-124.64,-127.81,-130.45,-132.38,-138.86,-140.81,-141.09,-139.94,-143.68,-142.11,-144.80,-146.59,-146.37,-147.96,-149.12,-146.51,-147.63,-151.22,-152.05,-148.87,-152.46,-150.14,-149.48,-148.09,-146.96,-148.76,-143.91,-143.36,-144.72,-140.17,-137.00,-139.34,-134.03,-129.28,-130.73,-123.71,-124.29,-119.95,-110.15,-105.51,-92.94,-93.13,-82.51,-75.38,-67.79,-54.85,-55.92,-50.93,-42.47,-47.49,-40.84,-45.15,-47.06,-45.15,-53.05,-55.33,-59.65,-61.02,-69.36,-77.12,-80.57,-97.49,-100.13,-105.27,-103.84,-108.99,-114.50,-114.41,-118.33,-121.28,-127.47,-125.10,-125.65,-125.86,-129.60,-133.02,-132.52,-130.01,-132.05,-135.29,-131.83,-135.84,-130.75,-124.86,-126.96,-129.11,-119.77,-129.51,-130.23,-130.05,-130.95,-127.50,-133.44,-138.53,-141.26,-139.42,-146.50,-151.18,-154.82,-155.65,-161.17,-162.81,-166.68,-169.03,-169.88,-176.50,-174.47,-182.21,-177.42,-181.92,-180.74,-182.85,-181.26,-185.70,-183.18,-185.69,-190.72,-185.51,-187.70,-188.86,-187.34,-188.93,-179.23,-185.26,-185.41,-186.24,-176.47,-175.27,-172.92,-168.24,-164.46,-160.36,-159.14,-158.45,-152.05,-144.69,-141.60,-133.83,-128.39,-126.06,-121.95,-115.19,-107.53,-100.12,-90.16,-85.31,-77.77,-74.20,-59.40,-53.15,-48.37,-40.39,-27.05,-15.07,-10.64,1.99,7.96,20.62,30.67,41.86,57.32,66.49,80.55,91.53,102.94,111.24,121.90,128.10,132.39,142.29,135.56,135.39,128.60,126.54,111.92,107.31,90.81,82.68,77.74,68.49,56.88,51.62,49.67,46.09,39.99,35.71,36.96,31.39,30.48,28.87,26.46,30.94,29.19,30.19,29.67,32.63
53.12,46.33,43.17,31.28,21.41,18.38,5.54,-2.42,-13.81,-21.17,-22.51,-26.42,-29.22,-36.66,-39.55,-44.07,-43.64,-47.14,-51.83,-53.55,-58.08,-58.31,-58.21,-60.06,-64.83,-67.90,-65.81,-59.50,-64.05,-66.16,-61.11,-57.94,-48.93,-45.16,-30.25,-21.14,-8.48,2.99,18.60,30.37,50.72,67.79,76.78,90.30,99.17,107.36,113.32,121.99,121.95,119.76,122.21,114.53,112.99,105.45,100.63,89.87,81.09,69.29,61.32,49.78,42.19,33.87,29.63,11.34,9.98,3.07,0.39,-0.29,-3.50,-2.88,-5.41,-7.83,-3.52,-10.31,-6.00,-9.40,-9.78,-5.57,0.08,-0.98,3.56,4.37,8.89,15.21,13.94,20.40,16.05,14.52,18.73,22.77,20.79,18.64,13.72,11.90,9.56,8.06,5.54,-2.57,-6.97,-11.30,-9.49,-15.80,-16.76,-19.72,-23.43,-20.42,-17.28,-18.54,-16.77,-17.52,-7.29,-8.11,-1.59,-1.50,6.05,10.39,17.67,29.41,31.56,39.50,51.32,57.95,68.56,81.17,91.51,105.77,106.20,115.78,120.70,120.21,124.76,123.78,119.56,116.90,105.94,106.93,97.09,90.52,91.37,82.84,86.81,87.43,82.63,84.99,89.88,88.66,89.79,94.03,99.38,101.97,96.96,102.50,102.77,104.34,98.01,99.69,95.74,91.18,91.59,83.12,87.71,86.58,81.81,77.52,75.99,78.94,71.29,76.54,77.58,74.36,74.50,63.41,73.76,70.94,69.33,67.01,67.99,66.21,61.29,54.29,56.44,52.93,53.11,48.28,46.60,39.91,39.07,34.29,32.07,30.14,27.04,18.91,16.07,8.39,0.64,-3.11,-13.24,-16.71,-27.91,-26.93,-36.10,-50.11,-55.10,-62.77,-69.28,-72.37,-79.37,-88.12,-93.46,-95.85,-105.18,-106.58,-113.84,-114.33,-120.92,-123.00,-126.98,-125.28,-128.21,-131.03,-130.55,-131.92,-134.31,-134.29,-130.52,-128.37,-127.27,-126.96,-120.46,-116.80,-111.15,-111.88,-111.68,-106.05,-104.26,-105.32,-105.15,-102.52,-107.24,-109.39,-114.67,-115.05,-120.51,-123.94,-128.59,-126.58,-131.78,-134.32,-134.43,-133.41,-135.35,-137.15,-136.10,-137.37,-140.34,-140.77,-141.14,-142.43,-142.89,-147.34,-147.07,-145.28,-146.04,-143.35,-142.50,-143.71,-150.31,-142.23,-143.41,-144.33,-142.28,-142.55,-135.63,-134.95,-138.88,-131.38,-131.59,-122.41,-122.76,-120.25,-107.15,-99.31,-91.41,-86.17,-77.86,-68.94,-60.75,-57.67,-52.90,-53.75,-44.77,-39.84,-40.84,-40.64,-43.64,-46.68,-53.29,-56.76,-63.22,-63.83,-68.34,-74.26,-85.79,-89.66,-98.26,-102.20,-106.78,-104.41,-112.22,-117.57,-118.72,-116.26,-120.34,-124.79,-120.35,-123.63,-127.58,-126.53,-124.62,-128.91,-125.92,-126.02,-128.16,-127.47,-129.80,-124.02,-126.59,-125.53,-125.89,-121.45,-118.88,-124.80,-120.55,-122.24,-129.71,-134.64,-129.76,-131.96,-138.04,-140.68,-143.71,-145.85,-147.66,-153.73,-158.00,-158.93,-159.87,-160.83,-161.75,-164.03,-166.45,-169.80,-174.25,-168.45,-166.71,-173.04,-170.01,-176.75,-174.45,-176.38,-169.03,-174.33,-171.68,-170.12,-164.89,-170.01,-163.74,-165.68,-161.15,-152.30,-154.31,-148.92,-146.84,-142.98,-137.68,-137.52,-130.08,-130.50,-124.33,-113.72,-113.97,-104.39,-110.09,-96.29,-89.43,-82.88,-74.43,-65.66,-59.67,-49.58,-42.34,-30.62,-21.18,-15.08,-4.36,2.40,14.49,22.04,31.46,37.52,54.46,65.81,73.63,86.50,95.19,111.39,117.02,128.35,131.07,133.63,139.66,134.18,134.61,124.37,118.24,112.98,100.75,92.26,85.48,70.54,64.73,54.97,49.06,42.44,39.68,33.43,36.50,38.20,30.86,27.97,32.84,26.93,26.13,27.45,25.56,29.48,22.16
55.69,46.00,46.27,33.82,29.19,19.26,10.96,4.93,-3.77,-11.96,-17.77,-25.55,-26.40,-29.81,-26.18,-36.58,-39.98,-44.91,-45.60,-47.05,-52.04,-50.38,-55.13,-55.37,-61.44,-60.67,-63.45,-60.76,-64.14,-66.69,-62.23,-62.63,-52.63,-43.24,-37.65,-27.30,-15.10,-4.95,9.77,28.02,41.34,62.04,74.41,81.70,92.98,100.77,109.69,116.36,121.10,121.56,126.60,121.74,117.00,112.03,99.34,91.33,89.12,82.91,70.65,64.21,56.70,49.49,38.33,32.48,26.23,20.28,18.06,11.15,14.16,8.04,5.77,0.64,0.70,6.00,12.93,5.94,4.39,4.92,5.58,6.72,13.95,15.91,16.28,20.45,23.27,20.08,28.09,29.72,25.91,29.76,24.53,24.53,16.58,15.61,9.35,1.92,0.94,-3.05,-10.02,-14.41,-14.81,-22.99,-24.08,-24.63,-25.01,-26.87,-25.78,-20.04,-21.02,-22.20,-14.83,-10.35,-6.43,0.62,-0.27,5.09,13.96,19.53,26.98,36.46,47.14,57.73,67.04,73.25,88.22,91.11,102.89,109.42,113.65,119.57,115.77,119.84,110.67,111.35,109.26,95.63,92.63,89.14,86.65,82.86,81.84,81.83,79.61,84.02,87.17,88.79,93.29,90.19,97.59,99.81,96.79,99.27,96.12,98.19,97.53,97.95,92.87,90.95,89.10,84.48,82.64,86.18,77.32,79.53,74.93,73.65,70.21,66.70,73.32,65.87,68.37,68.04,61.41,62.14,65.39,63.32,60.69,60.20,56.46,52.26,53.80,46.09,46.28,48.06,45.58,42.66,43.91,37.05,33.44,33.76,27.65,21.82,18.41,13.09,4.57,-3.31,-7.70,-7.90,-15.74,-29.51,-36.29,-41.71,-50.01,-51.78,-62.72,-69.84,-78.23,-76.52,-87.04,-91.35,-95.54,-101.93,-107.40,-110.84,-112.37,-115.30,-126.40,-122.21,-123.06,-122.45,-123.64,-124.43,-124.36,-120.64,-117.74,-123.03,-117.23,-119.95,-110.87,-111.37,-103.28,-104.33,-102.56,-100.45,-94.70,-95.82,-94.87,-99.04,-98.08,-99.39,-97.91,-110.39,-109.79,-115.37,-116.20,-117.96,-118.18,-123.93,-122.86,-123.16,-130.34,-133.44,-133.78,-134.23,-133.26,-133.27,-138.93,-133.38,-133.82,-139.90,-143.43,-138.41,-140.83,-143.62,-137.25,-143.38,-138.91,-142.27,-138.70,-142.19,-137.83,-141.12,-134.67,-136.90,-139.49,-134.53,-131.47,-131.17,-120.37,-115.91,-115.33,-103.05,-99.69,-89.75,-82.81,-74.59,-68.35,-57.70,-53.19,-49.68,-49.08,-44.12,-44.20,-44.10,-43.68,-45.89,-45.53,-50.25,-52.90,-61.81,-60.82,-71.02,-72.78,-79.46,-85.49,-91.11,-90.66,-95.60,-103.27,-106.49,-111.72,-114.66,-115.11,-116.02,-115.29,-113.62,-124.91,-123.50,-119.79,-124.91,-117.93,-118.28,-118.04,-122.32,-120.34,-113.80,-120.25,-113.73,-115.65,-116.72,-114.35,-107.60,-114.54,-114.88,-119.03,-117.57,-119.02,-124.38,-128.38,-128.04,-129.36,-132.86,-137.72,-137.52,-142.34,-140.43,-146.22,-152.22,-148.20,-151.13,-153.87,-154.61,-158.78,-158.75,-158.76,-156.03,-156.81,-161.85,-159.33,-158.39,-156.42,-164.32,-160.86,-157.97,-161.08,-150.03,-150.58,-147.13,-147.77,-142.59,-139.40,-137.50,-130.26,-127.84,-124.47,-121.47,-118.33,-112.01,-106.45,-102.96,-94.18,-93.54,-85.26,-84.27,-76.57,-72.07,-62.92,-51.21,-49.54,-35.30,-31.92,-25.49,-14.31,-5.77,3.70,9.24,22.01,28.31,41.19,51.12,61.77,76.98,89.73,98.01,105.15,116.74,128.23,133.33,141.82,134.67,135.26,136.94,130.50,120.48,112.75,105.51,95.66,86.10,79.53,70.71,55.27,52.28,43.51,43.76,34.93,30.18,33.53,32.45,25.78,29.35,23.40,23.69,20.12,26.76,25.11,22.87,23.06
54.69,51.01,47.17,40.87,34.57,25.64,16.05,6.40,3.31,-8.14,-9.96,-13.60,-19.60,-26.60,-28.27,-30.80,-33.78,-35.58,-37.08,-42.50,-42.85,-45.99,-47.82,-53.92,-55.12,-59.21,-60.66,-63.11,-64.67,-59.26,-60.66,-61.94,-55.88,-52.35,-42.30,-33.87,-21.93,-14.45,-0.10,18.33,35.66,48.82,61.06,74.03,91.28,96.03,107.41,110.14,116.94,122.30,117.66,118.17,120.57,117.51,112.10,104.47,92.49,87.83,83.47,72.10,64.74,63.42,51.42,51.69,43.88,38.75,32.90,35.15,26.94,22.12,20.22,19.56,18.10,17.41,17.20,17.61,12.91,19.20,22.43,21.56,23.92,25.59,27.39,30.39,30.59,31.42,30.86,29.07,25.74,26.83,23.35,24.67,17.30,10.57,6.16,0.59,-3.16,-11.75,-13.64,-21.38,-23.45,-27.90,-30.64,-23.25,-27.70,-28.00,-28.71,-23.14,-23.02,-21.93,-21.72,-12.57,-12.15,-9.43,-3.49,6.73,11.48,15.22,30.71,33.40,38.81,52.74,61.64,74.74,82.92,90.24,100.76,101.84,110.22,117.69,114.86,107.46,110.95,103.35,96.48,93.14,90.83,82.41,76.48,75.66,76.68,73.82,77.29,77.40,77.56,84.39,87.11,89.55,87.06,91.01,97.68,96.85,100.33,96.36,95.67,95.88,95.41,94.26,90.75,88.49,85.22,79.03,80.46,72.88,69.17,69.99,66.57,68.86,63.54,61.42,61.30,62.25,61.53,57.09,58.88,56.00,55.17,53.27,53.02,51.98,48.48,50.22,48.47,44.43,43.67,37.08,37.75,32.39,33.31,29.48,27.25,22.27,18.77,15.43,6.97,3.33,-1.98,-10.47,-18.89,-22.75,-27.73,-35.66,-45.25,-51.58,-58.32,-66.85,-64.83,-75.00,-79.01,-86.87,-95.02,-94.72,-96.94,-107.24,-112.22,-110.82,-108.84,-115.96,-119.74,-115.55,-119.90,-120.72,-117.50,-115.47,-120.34,-113.17,-114.68,-111.65,-104.19,-103.32,-101.57,-93.96,-91.90,-90.83,-90.52,-89.54,-91.95,-84.56,-89.88,-95.26,-90.20,-98.97,-99.78,-106.01,-107.71,-110.24,-111.03,-111.37,-116.87,-117.78,-115.29,-119.18,-122.00,-120.77,-125.63,-127.72,-127.41,-129.41,-132.13,-131.52,-137.42,-135.78,-138.74,-138.94,-140.77,-137.55,-139.10,-137.23,-137.49,-135.72,-141.02,-138.73,-139.79,-137.63,-136.90,-136.67,-133.59,-133.64,-124.57,-125.48,-113.42,-111.25,-98.55,-91.52,-86.40,-82.18,-69.25,-67.50,-56.23,-57.18,-53.82,-48.25,-49.37,-45.31,-49.02,-44.65,-48.69,-43.63,-51.15,-54.23,-58.69,-67.74,-67.47,-78.51,-72.59,-87.59,-90.99,-90.32,-93.82,-95.91,-99.03,-107.52,-112.42,-108.69,-113.85,-113.71,-113.74,-110.92,-113.41,-116.22,-117.18,-117.34,-107.75,-113.41,-110.03,-107.21,-108.56,-105.57,-108.08,-103.82,-103.60,-109.25,-107.91,-107.11,-108.56,-110.76,-110.31,-110.05,-120.07,-119.63,-123.53,-118.57,-123.68,-126.98,-129.38,-134.19,-132.01,-131.36,-135.02,-140.18,-142.49,-139.76,-144.63,-144.29,-146.26,-143.82,-148.45,-139.23,-147.50,-148.69,-139.52,-146.46,-143.46,-138.95,-143.42,-143.02,-139.48,-137.70,-126.05,-128.26,-126.36,-122.10,-121.87,-115.16,-111.89,-105.71,-104.09,-99.92,-97.50,-82.86,-83.12,-80.90,-74.64,-69.92,-56.65,-55.25,-50.45,-38.87,-42.07,-27.03,-21.46,-12.40,-1.63,3.12,15.89,21.41,29.90,41.39,55.31,65.57,73.87,85.84,100.72,109.38,114.71,119.98,133.29,135.39,134.49,140.10,138.96,131.12,131.25,119.21,110.98,97.13,89.90,78.38,75.30,59.79,52.83,43.44,44.72,35.23,29.40,31.84,29.83,24.78,22.04,23.90,22.08,21.76,23.42,23.45,21.65,18.32,15.94
52.39,49.38,48.71,38.30,33.82,26.43,20.66,15.04,9.04,2.20,-1.54,-11.66,-13.29,-19.22,-21.73,-24.91,-31.07,-29.91,-33.12,-36.28,-40.16,-47.90,-45.35,-47.41,-47.65,-53.83,-50.62,-59.34,-60.27,-62.00,-62.35,-58.00,-53.23,-50.39,-44.72,-37.98,-27.20,-15.54,-1.86,11.82,23.90,44.49,60.32,68.81,81.50,93.60,99.32,109.75,112.69,116.59,116.23,118.60,119.08,120.46,111.98,106.88,104.10,100.19,94.63,81.35,78.93,77.18,63.70,61.93,57.05,48.33,48.92,45.34,39.10,34.55,38.45,30.10,34.85,30.93,28.84,32.45,28.57,29.85,32.70,30.55,34.29,32.25,38.06,35.82,38.87,46.75,35.36,39.79,32.96,31.86,28.08,22.46,15.55,4.23,4.95,-3.46,-11.35,-16.56,-23.47,-23.95,-28.83,-31.02,-29.98,-33.39,-32.14,-33.16,-30.52,-31.33,-30.67,-25.82,-23.07,-20.30,-14.44,-7.64,-9.67,1.24,9.85,14.93,21.65,30.80,41.20,41.52,54.36,69.81,79.03,90.84,94.52,98.62,100.51,105.03,104.27,105.18,102.95,94.27,94.37,81.05,85.81,76.26,77.80,71.01,72.08,70.01,73.81,71.28,72.24,80.21,80.42,89.18,89.22,93.74,96.40,94.15,96.62,98.09,95.25,94.85,94.95,95.63,90.02,87.48,84.77,82.39,77.58,71.65,68.27,58.86,61.46,62.82,57.18,55.98,59.25,53.08,52.69,51.68,49.23,49.60,43.16,54.72,46.53,45.94,38.96,40.63,41.65,36.81,41.15,38.16,35.40,34.69,31.52,25.83,28.60,21.52,21.27,19.74,11.96,7.39,-1.31,-8.32,-8.42,-15.26,-20.99,-25.37,-38.87,-43.31,-47.87,-52.16,-60.48,-71.54,-70.75,-78.17,-84.76,-91.41,-90.65,-91.50,-102.39,-104.58,-106.24,-112.21,-110.97,-110.37,-107.51,-112.68,-110.38,-112.11,-106.60,-107.11,-101.96,-103.22,-102.29,-97.02,-87.87,-88.91,-85.84,-82.34,-81.07,-78.95,-79.60,-72.62,-78.62,-81.78,-84.61,-88.44,-93.23,-93.63,-101.28,-103.48,-103.56,-103.68,-108.19,-106.72,-113.05,-111.86,-116.75,-114.10,-112.19,-118.05,-117.37,-119.26,-124.13,-123.52,-129.79,-128.45,-129.14,-132.74,-131.32,-134.49,-131.56,-138.19,-138.17,-137.29,-140.78,-134.69,-145.09,-141.25,-138.25,-133.26,-139.45,-134.98,-129.92,-119.71,-115.83,-113.09,-101.00,-95.56,-88.37,-80.19,-76.44,-66.79,-62.60,-50.05,-48.70,-49.99,-45.91,-47.72,-43.23,-46.55,-45.22,-43.40,-49.28,-51.36,-54.03,-55.83,-56.20,-61.21,-69.97,-70.23,-78.45,-82.43,-87.18,-89.13,-96.48,-98.52,-97.16,-103.28,-105.78,-109.46,-105.58,-110.46,-104.24,-107.04,-111.54,-107.14,-108.40,-103.94,-105.09,-97.39,-96.26,-102.09,-100.30,-97.42,-100.62,-100.63,-103.38,-103.54,-98.59,-101.29,-104.25,-101.87,-109.99,-107.06,-108.03,-112.87,-110.36,-111.66,-115.80,-119.84,-122.44,-122.40,-126.03,-125.51,-124.61,-126.78,-130.33,-129.48,-131.32,-131.19,-131.99,-127.30,-131.95,-129.81,-135.72,-130.03,-132.13,-129.19,-128.65,-136.31,-120.49,-126.43,-123.17,-118.23,-116.02,-112.40,-106.23,-101.93,-99.26,-94.71,-90.52,-85.68,-78.30,-70.88,-68.99,-59.10,-66.94,-55.29,-50.51,-38.20,-33.60,-28.34,-19.14,-10.16,-8.66,-0.73,9.05,18.88,28.57,36.24,45.96,57.22,66.91,75.45,88.40,95.81,106.77,121.91,122.21,132.92,137.78,143.78,148.11,144.00,138.07,133.03,122.70,116.66,108.51,99.21,83.50,76.22,62.07,55.89,48.38,46.64,31.27,37.86,26.63,27.03,30.34,17.99,19.62,24.11,16.59,26.18,19.33,20.00,19.73,17.91,21.94
50.88,48.74,47.59,45.57,36.31,29.86,24.95,21.58,13.91,7.47,-0.86,-4.43,-9.92,-14.40,-17.07,-15.80,-20.08,-24.22,-29.75,-31.56,-33.34,-39.59,-41.70,-44.63,-44.11,-48.61,-49.16,-57.74,-56.71,-58.46,-56.61,-54.16,-58.68,-53.65,-50.76,-37.59,-32.70,-21.93,-6.62,1.67,16.19,32.32,47.94,60.61,74.47,88.07,96.35,101.30,107.52,114.84,115.78,120.34,117.61,112.95,114.53,110.78,107.70,99.54,94.64,96.94,86.03,82.07,73.27,73.61,64.76,64.75,61.65,56.30,55.97,51.66,49.81,46.10,44.83,48.61,41.79,39.17,40.91,44.03,39.80,37.75,37.63,44.93,44.12,48.31,45.11,48.28,39.04,40.58,38.49,32.36,28.08,21.45,10.80,4.30,0.24,-1.88,-15.13,-17.98,-24.61,-27.58,-31.90,-36.48,-34.51,-36.08,-32.56,-34.51,-37.79,-31.03,-28.61,-27.04,-21.76,-26.52,-14.30,-13.00,-6.29,-5.10,-1.10,10.24,18.96,24.07,38.22,47.36,60.12,66.09,78.22,83.18,90.34,96.94,99.16,98.46,96.91,96.32,96.47,92.36,89.97,81.91,78.49,75.61,66.81,65.52,69.47,64.41,65.74,70.78,68.04,71.66,77.21,79.00,80.04,86.95,91.23,89.62,93.61,98.22,96.56,92.44,96.49,92.78,88.17,87.21,80.22,77.97,73.23,72.99,63.78,64.30,59.45,55.33,52.15,55.49,52.96,45.75,50.26,44.03,47.43,39.25,38.41,44.15,46.06,44.49,39.34,41.10,37.90,38.00,35.61,37.70,36.79,34.81,29.09,32.75,29.64,27.27,13.81,14.90,17.61,15.82,3.76,0.09,-12.16,-12.54,-18.43,-25.98,-27.47,-36.74,-45.31,-48.95,-53.68,-65.37,-70.49,-77.71,-79.31,-82.79,-90.03,-88.58,-93.06,-100.50,-103.16,-106.09,-104.99,-100.91,-107.22,-103.34,-103.90,-107.15,-98.91,-100.23,-97.91,-93.64,-91.23,-84.76,-85.41,-80.08,-76.37,-77.91,-73.10,-74.37,-70.56,-78.31,-70.13,-76.52,-77.24,-79.69,-84.37,-87.42,-87.89,-87.59,-91.61,-95.70,-93.16,-93.80,-100.42,-100.76,-102.41,-101.37,-105.65,-107.08,-106.92,-113.06,-114.05,-116.88,-119.66,-124.67,-125.77,-128.70,-125.64,-126.93,-132.93,-133.72,-134.16,-131.82,-138.17,-134.73,-147.24,-137.61,-143.30,-139.35,-139.58,-135.25,-131.64,-128.20,-120.99,-114.16,-110.54,-102.78,-89.34,-85.57,-78.11,-73.77,-65.27,-61.63,-54.09,-52.74,-48.81,-40.35,-42.05,-42.35,-40.89,-37.88,-44.09,-42.69,-44.66,-47.10,-52.35,-55.56,-64.12,-62.50,-70.77,-68.62,-77.72,-84.48,-89.45,-89.77,-90.93,-93.47,-99.15,-90.44,-97.42,-97.36,-100.47,-103.98,-100.84,-100.90,-97.60,-99.36,-97.77,-100.17,-93.96,-95.59,-92.91,-92.62,-95.02,-92.84,-93.17,-91.05,-94.25,-91.24,-91.97,-95.26,-95.31,-95.41,-98.52,-97.86,-98.30,-99.47,-101.81,-106.16,-110.16,-107.43,-112.58,-113.21,-122.54,-112.61,-114.10,-122.07,-120.90,-122.04,-125.01,-123.66,-116.30,-120.84,-118.04,-121.09,-125.62,-119.88,-118.08,-117.20,-118.60,-109.75,-111.66,-107.31,-101.06,-101.65,-95.44,-90.34,-81.98,-82.95,-75.85,-73.93,-64.10,-67.38,-61.33,-52.01,-48.15,-39.35,-32.97,-33.22,-19.49,-14.61,-3.47,-2.16,8.55,16.05,26.37,24.38,35.84,51.44,61.79,69.66,74.76,87.26,100.75,107.35,117.11,129.53,134.74,139.24,143.83,146.41,143.87,142.68,134.13,131.49,119.83,109.10,103.68,90.85,80.05,70.55,56.32,53.91,44.62,42.95,40.34,31.05,28.22,25.15,18.21,17.53,16.98,20.79,22.16,18.91,14.08,11.53,15.17,15.06,17.94
